13387
-1.128650 -0.607730 -8.841630
-0.955010 -0.105020 -8.681910
-1.128650 -0.347280 -8.808220
-0.520910 -0.124280 -8.681910
-3.524550 -4.775050 -6.077330
-3.125490 -3.472760 -6.922360
-3.472760 -3.811270 -6.250970
-2.962750 -5.209140 -6.945530
-3.212310 -4.427770 -6.748740
-3.397560 -3.299120 -6.337790
-3.671860 -3.733220 -5.816880
-3.613900 -5.382780 -5.643240
-2.778210 -4.514590 -7.271020
-3.472760 -4.254130 -6.260220
-3.340870 -5.209140 -6.337790
-3.646400 -3.299120 -5.806560
-3.305590 -4.775050 -6.511430
-3.733220 -4.080500 -5.701080
-3.421340 -2.778210 -6.164150
-3.253390 -3.559580 -6.685070
-2.865030 -5.469600 -7.009360
-3.033560 -4.775050 -6.945530
-3.472760 -5.209140 -6.066970
-3.293580 -3.038670 -6.511430
-3.675750 -4.861870 -5.730060
-3.348900 -3.906860 -6.511430
-3.125490 -4.514590 -6.871350
-3.596550 -4.427770 -5.990520
-3.631350 -2.951850 -5.730060
-3.492370 -3.472760 -6.164150
-2.945580 -4.254130 -7.119160
-2.848840 -4.948690 -7.119160
-3.038670 -3.125490 -7.044840
-3.047580 -2.778210 -7.466440
-2.795860 -3.212310 -8.074170
-2.978460 -2.865030 -8.074170
-2.951850 -3.063510 -7.292800
-2.951850 -3.820040 -7.194030
-2.778210 -3.283640 -7.726900
-2.945060 -3.299120 -7.205980
-3.082960 -2.778210 -7.032340
-2.865030 -3.122660 -7.813720
-3.038670 -2.868020 -7.205980
-2.822750 -3.559580 -7.379620
-2.778210 -3.820040 -7.393770
-2.993790 -3.993680 -7.119160
-2.891710 -3.385940 -7.292800
-2.951850 -3.012000 -7.466440
-3.002040 -3.472760 -7.119160
-2.784760 -3.385940 -7.466440
-2.944220 -2.951850 -8.074170
-3.050320 -2.951850 -7.032340
-2.955790 -2.951850 -7.726900
-3.098310 -3.212310 -6.945530
-2.946060 -3.646400 -7.205980
-2.865030 -3.199200 -7.466440
-3.112360 -5.382780 -6.685070
-3.211990 -5.122320 -6.598250
-3.213730 -4.167320 -6.771890
-3.472760 -3.038670 -6.111310
-3.212310 -3.038670 -6.687480
-3.170020 -3.906860 -6.858710
-3.158400 -2.865030 -6.771890
-3.125490 -2.966080 -6.858710
-2.691390 -4.948690 -7.285390
-1.302290 -5.122320 -8.167060
-1.910020 -5.035510 -7.894890
-2.344110 -4.601410 -7.656580
-2.083660 -4.861870 -7.815340
-1.516760 -5.209140 -8.074170
-2.545090 -5.209140 -7.379620
-2.430930 -4.775050 -7.561130
-2.678010 -4.427770 -7.379620
-2.170480 -4.427770 -7.818250
-1.673440 -4.340950 -8.247810
-2.091730 -5.382780 -7.726900
-1.996840 -4.167320 -8.069740
-1.910020 -4.601410 -7.955050
-1.636130 -5.469600 -7.987350
-2.344110 -5.122320 -7.569800
-1.607090 -4.861870 -8.074170
-2.578530 -5.469600 -7.292800
-1.904920 -4.167320 -8.247810
-2.433590 -4.254130 -7.640080
-2.170480 -4.136770 -7.900530
-1.853180 -5.469600 -7.900530
-1.996840 -4.340950 -7.951510
-1.659740 -4.688230 -8.074170
-2.257300 -5.469600 -7.607440
-1.562740 -4.427770 -8.238670
-2.141660 -5.122320 -7.726900
-1.742190 -4.340950 -8.160990
-1.910020 -4.427770 -7.984210
-1.996840 -5.295959 -7.808360
-1.736380 -5.050220 -7.987350
-2.200900 -4.340950 -7.813720
-2.327750 -5.295959 -7.553260
-1.828280 -4.688230 -7.987350
-1.400720 -4.861870 -8.160990
-1.475920 -4.483570 -8.247810
-1.649560 -4.514590 -8.125200
-1.823200 -4.340950 -8.081500
-1.475920 -4.688230 -8.159300
-1.736380 -4.514590 -8.066550
-1.562740 -4.601410 -8.145269
-1.310480 -4.601410 -8.247810
-1.215470 -4.861870 -8.225800
-1.215470 -4.727360 -8.247810
-2.565970 -3.559580 -7.987350
-2.257300 -4.080500 -7.853770
-2.685080 -4.080500 -7.466440
-2.713800 -3.472760 -7.553260
-2.430930 -3.906860 -7.734080
-2.344110 -3.827230 -7.987350
-2.604570 -3.733220 -7.589090
-2.691390 -3.378870 -7.987350
-2.467310 -3.646400 -8.160990
-2.605790 -3.906860 -7.553260
-2.257300 -3.864400 -8.247810
-2.257300 -3.927990 -7.987350
-2.517750 -3.646400 -7.847520
-2.386960 -4.080500 -7.726900
-2.075610 -4.080500 -8.074170
-2.610350 -3.472760 -8.160990
-2.430930 -3.733220 -7.982050
-2.691390 -3.419850 -7.726900
-2.691390 -3.646400 -7.506580
-2.170480 -3.993680 -8.075710
-2.604570 -3.571880 -7.726900
-2.083660 -4.029810 -8.247810
-2.430930 -3.820040 -7.803090
-2.520700 -3.733220 -7.726900
-3.335730 -2.257300 -6.250970
-3.397380 -1.562740 -6.685070
-3.493660 -0.434100 -5.816880
-3.414210 -0.781370 -6.685070
-3.328990 -0.607730 -7.640080
-3.552530 -2.691390 -5.816880
-3.417610 -0.173640 -6.771890
-3.441200 -0.520910 -6.250970
-3.371030 -0.434100 -7.205980
-3.390230 -1.736380 -6.337790
-3.503100 -0.955010 -5.816880
-3.416930 -1.128650 -6.511430
-3.067470 -2.691390 -7.726900
-3.382840 -1.736380 -7.032340
-3.180300 -2.430930 -7.292800
-3.472760 -0.946300 -6.077330
-3.438710 -0.260460 -6.250970
-3.385940 -0.347280 -7.106670
-3.646400 -2.517750 -5.507630
-3.362770 -0.868190 -7.466440
-3.323020 -0.086820 -7.553260
-3.429800 -1.302290 -6.337790
-3.517670 -0.173640 -5.730060
-3.417310 -1.041830 -6.858710
-3.283040 -2.430930 -6.424610
-3.335780 -1.649560 -7.726900
-3.130200 -2.517750 -7.726900
-3.406530 -0.520910 -6.685070
-3.206380 -2.257300 -7.987350
-3.314570 -1.996840 -7.032340
-3.305640 -1.649560 -7.987350
-3.367730 -1.649560 -7.466440
-3.219700 -2.257300 -7.553260
-3.199000 -2.083660 -8.247810
-3.294440 -1.910020 -7.640080
-3.232930 -1.823200 -8.247810
-3.060220 -2.604570 -8.247810
-3.230010 -2.344110 -7.032340
-3.306130 -1.823200 -7.900530
-3.299120 -1.897640 -7.379620
-3.359150 -1.475920 -7.640080
-3.285490 -1.389110 -8.160990
-3.137020 -2.604570 -7.119160
-3.268670 -1.996840 -7.987350
-3.125490 -2.480460 -7.987350
-3.237750 -2.170480 -7.553260
-3.240380 -1.736380 -8.247810
-3.167610 -2.257300 -8.247810
-3.395530 -1.562740 -7.205980
-3.267930 -2.083660 -7.813720
-3.282620 -2.083660 -7.205980
-3.385940 -1.128650 -7.475370
-3.278060 -0.607730 -7.987350
-3.263480 -0.086820 -8.074170
-3.300630 -1.128650 -8.074170
-3.242540 -0.434100 -8.247810
-3.255630 -1.128650 -8.247810
-3.305330 -0.173640 -7.813720
-3.233000 -0.694550 -8.247810
-3.333860 -0.955010 -7.900530
-3.415870 -1.302290 -7.292800
-3.398090 -0.955010 -7.119160
-3.348940 -0.868190 -7.726900
-3.307110 -0.347280 -7.900530
-3.282750 -0.868190 -8.160990
-3.319220 -1.302290 -7.900530
-3.404100 -1.302290 -7.032340
-3.257090 -0.347280 -8.160990
-3.351590 -1.215470 -7.726900
-3.313240 -0.781370 -7.987350
-3.256240 -1.302290 -8.247810
-3.299120 -0.955010 -8.120481
-3.316060 -0.607730 -7.813720
-3.214910 -0.000000 -8.247810
-3.244080 -0.607730 -8.160990
-3.530010 -1.823200 -5.556420
-3.464090 -1.389110 -5.990520
-3.163540 -2.604570 -6.858710
-3.540390 -2.257300 -5.643240
-3.299120 -2.653300 -6.424610
-3.235570 -2.430930 -6.685070
-3.474630 -1.649560 -5.903700
-3.559580 -1.499440 -5.556420
-3.461410 -1.910020 -5.816880
-3.303520 -2.170480 -6.511430
-3.266270 -2.691390 -6.511430
-3.344150 -1.910020 -6.685070
-3.403380 -1.996840 -6.077330
-3.196740 -2.691390 -6.685070
-3.414360 -2.517750 -6.077330
-3.465200 -2.083660 -5.816880
-3.531320 -1.649560 -5.643240
-3.258880 -2.257300 -6.771890
-3.399540 -1.823200 -6.164150
-3.459380 -2.344110 -5.903700
-3.501030 -1.389110 -5.730060
-3.521580 -0.000000 -5.643240
-3.521010 -0.434100 -5.556420
-3.503140 -1.215470 -5.730060
-3.539560 -0.781370 -5.556420
-0.607730 -8.484489 -5.382780
-0.694550 -8.418030 -4.514590
-0.607730 -8.489800 -4.254130
-0.868190 -8.381250 -4.254130
-0.434100 -8.595090 -5.421060
-0.807870 -8.334630 -4.688230
-1.128650 -8.247810 -4.593590
-0.506020 -8.508270 -4.427770
-0.421240 -8.595090 -5.382780
-0.347280 -8.606000 -4.167320
-1.041830 -8.301190 -4.427770
-0.781370 -8.409840 -4.340950
-0.781370 -8.247810 -4.979480
-0.781370 -8.247810 -5.254350
-0.694550 -8.405960 -4.861870
-0.955010 -8.247810 -4.814210
-0.781370 -8.368510 -5.382780
-0.694550 -8.315580 -5.035510
-0.728900 -8.247810 -5.122320
-0.868190 -8.249480 -4.861870
-0.781370 -8.389860 -5.469600
-0.719550 -8.334630 -4.948690
-0.868190 -8.279910 -5.382780
-0.697140 -8.334630 -5.209140
-0.173640 -8.692910 -5.382780
-0.071680 -8.768730 -4.861870
-0.520910 -8.508270 -4.906850
-0.260460 -8.511630 -5.035510
-0.173640 -8.561430 -5.122320
-0.347280 -8.508270 -5.149000
-0.607730 -8.358780 -5.122320
-0.260460 -8.595090 -4.916520
-0.260460 -8.595090 -5.228430
-0.434100 -8.595090 -4.858350
-0.434100 -8.505031 -5.209140
-0.240490 -8.681910 -5.469600
-0.173640 -8.590810 -4.948690
-0.500740 -8.421451 -5.035510
-0.347280 -8.480640 -5.035510
-0.575630 -8.421451 -5.209140
-0.086820 -8.635050 -5.209140
-0.086820 -8.584880 -5.122320
-0.086820 -8.595090 -4.978090
-0.434100 -8.512780 -4.948690
-0.214370 -8.681910 -4.861870
-0.658060 -8.421451 -5.295959
-0.260460 -8.528490 -5.122320
-0.086820 -8.681910 -5.292880
-0.607730 -8.421451 -4.953980
-0.347280 -8.538560 -4.948690
-0.260460 -8.582991 -5.209140
-0.434100 -8.448730 -5.035510
-0.086820 -8.754760 -4.861870
-0.497040 -8.421451 -5.122320
-0.434100 -8.449790 -5.122320
-0.173640 -8.543130 -5.035510
-0.086820 -8.956730 -4.601410
-0.086820 -8.942360 -4.463120
-0.086820 -8.942360 -4.678240
-0.868190 -8.332550 -4.601410
-0.349720 -8.595090 -4.340950
-0.347280 -8.681910 -4.808100
-0.260460 -8.774320 -4.601410
-0.347280 -8.654680 -4.601410
-0.173640 -8.768730 -4.416920
-0.540140 -8.508270 -4.601410
-0.173640 -8.709810 -4.167320
-0.247340 -8.768730 -4.775050
-0.260460 -8.681910 -4.478750
-0.370400 -8.595090 -4.514590
-0.349540 -8.595090 -4.254130
-0.173640 -8.855540 -4.727410
-0.596080 -8.508270 -4.775050
-0.173640 -8.855540 -4.496550
-0.434100 -8.595090 -4.612340
-0.173640 -8.725739 -4.340950
-0.347280 -8.705820 -4.688230
-0.173640 -8.895010 -4.601410
-0.677950 -8.421451 -4.688230
-0.434100 -8.641640 -4.775050
-0.086820 -8.842810 -4.340950
-0.097530 -8.768730 -4.167320
-0.086820 -8.883821 -4.775050
-0.520910 -8.546830 -4.688230
-0.260460 -8.779980 -4.688230
-0.114970 -9.723741 -2.951850
-0.223580 -9.636920 -2.865030
-0.117780 -9.723741 -3.125490
-0.086820 -9.723741 -3.228140
-0.086820 -9.666090 -3.385940
-0.194980 -9.636920 -3.299120
-1.475920 -8.247810 -3.443790
-1.389110 -8.301620 -2.778210
-1.562740 -8.253390 -3.125490
-1.389110 -8.289440 -3.125490
-0.347280 -8.942360 -3.553880
-0.342100 -9.463280 -2.778210
-0.660380 -9.029180 -3.125490
-0.086820 -9.376460 -3.567230
-0.725880 -8.768730 -2.778210
-0.955010 -8.343400 -3.906860
-0.520910 -8.568780 -3.993680
-0.868190 -8.685960 -3.299120
-0.460750 -9.376460 -3.125490
-0.895530 -8.595090 -3.038670
-0.781370 -8.681910 -3.561900
-1.128650 -8.334630 -3.373300
-1.042640 -8.421451 -2.778210
-0.347280 -8.701180 -3.906860
-0.556970 -9.116000 -2.865030
-0.260460 -9.606840 -3.125490
-0.260460 -9.116000 -3.508600
-1.338940 -8.247810 -3.733220
-0.173640 -8.768730 -3.981970
-0.955010 -8.516540 -3.125490
-0.968340 -8.508270 -3.299120
-0.694550 -8.944920 -3.038670
-0.868190 -8.546580 -2.778210
-0.118840 -9.289640 -3.559580
-0.955010 -8.368810 -3.733220
-1.128650 -8.309870 -3.559580
-1.215470 -8.346550 -2.951850
-0.827550 -8.681910 -2.951850
-0.347280 -9.524300 -3.038670
-1.034860 -8.421451 -2.951850
-1.215470 -8.266220 -3.820040
-0.781370 -8.421451 -4.081200
-0.421840 -8.681910 -3.820040
-0.781370 -8.829040 -3.212310
-0.564900 -9.202820 -3.125490
-0.868190 -8.595090 -3.534090
-0.173640 -8.942360 -3.639760
-0.464200 -9.289640 -2.865030
-1.041830 -8.407320 -3.299120
-0.086820 -8.861750 -3.906860
-0.520910 -8.559360 -4.080500
-0.520910 -8.665190 -3.733220
-1.041830 -8.305850 -4.080500
-0.624100 -8.942360 -2.778210
-1.302290 -8.278540 -3.472760
-0.805660 -8.768730 -3.125490
-1.302290 -8.294870 -3.299120
-0.086820 -9.041739 -3.646400
-0.347280 -9.289640 -3.438620
-0.520910 -9.029180 -3.466340
-0.173640 -9.550100 -3.453410
-0.520910 -8.942360 -3.507150
-0.083840 -8.942360 -3.733220
-0.260460 -9.345400 -3.472760
-0.086820 -9.610120 -3.472760
-0.434100 -9.058180 -3.472760
-0.012660 -9.202820 -3.646400
-0.173640 -9.096840 -3.559580
-0.955010 -8.444310 -3.559580
-0.789490 -8.421451 -3.906860
-0.694550 -8.595090 -3.703000
-0.771500 -8.508270 -3.733220
-0.883310 -8.421451 -3.733220
-0.781370 -8.748380 -3.472760
-0.692940 -8.855540 -3.472760
-0.607730 -8.595090 -3.755690
-0.518400 -8.768730 -3.646400
-0.260460 -8.823851 -3.733220
-0.638060 -8.508270 -3.906860
-0.607730 -8.768730 -3.604330
-0.347280 -8.837250 -3.646400
-0.607730 -8.855540 -3.538790
-0.434100 -8.895350 -3.559580
-0.694550 -8.942360 -3.374430
-0.694550 -8.967670 -3.299120
-0.434100 -9.376460 -3.285990
-0.434100 -9.202820 -3.417660
-0.607730 -9.116000 -3.309250
-0.260460 -9.521931 -3.385940
-0.347280 -9.463280 -3.335600
-0.308910 -9.550100 -3.212310
-0.490750 -9.202820 -3.385940
-0.260460 -9.463280 -3.431490
-0.520910 -9.245440 -3.299120
-0.607730 -9.046100 -3.385940
-0.516530 -9.289640 -3.212310
-0.375210 -9.376460 -3.385940
-0.394400 -9.463280 -3.212310
-1.196590 -8.334630 -3.125490
-0.745250 -8.855540 -3.385940
-3.472760 -6.856920 -4.167320
-3.993680 -5.865560 -4.167320
-2.976810 -7.553260 -3.472760
-3.001950 -7.119160 -4.948690
-3.820040 -5.643240 -4.921440
-2.951850 -7.640830 -2.865030
-3.646400 -6.333380 -4.688230
-3.878800 -6.424610 -3.646400
-3.385940 -7.115430 -3.646400
-2.951850 -7.411260 -4.080500
-4.319100 -5.643240 -2.865030
-4.033570 -6.077330 -3.646400
-3.428970 -7.205980 -3.038670
-3.299120 -6.870560 -4.688230
-3.798700 -6.250970 -4.340950
-3.366800 -6.598250 -5.035510
-2.951850 -7.299120 -4.514590
-2.953300 -6.945530 -5.469600
-4.167320 -5.990520 -3.255040
-3.561640 -6.077330 -5.209140
-3.299120 -7.076890 -4.080500
-4.167550 -5.556420 -3.820040
-3.732620 -6.511430 -4.080500
-3.146750 -6.685070 -5.469600
-3.559580 -5.816880 -5.451740
-3.819680 -5.990520 -4.601410
-3.030960 -7.466440 -3.646400
-3.125490 -7.481160 -2.951850
-2.778210 -7.735850 -3.212310
-4.234740 -5.990520 -2.865030
-3.559580 -6.591410 -4.514590
-4.254130 -5.677220 -3.212310
-3.125490 -7.187040 -4.340950
-3.288070 -7.292800 -3.299120
-3.725520 -6.685070 -3.646400
-2.778210 -7.435940 -4.601410
-3.993680 -6.092610 -3.820040
-3.125490 -6.945530 -5.008940
-3.469440 -6.424610 -5.035510
-2.778210 -7.663690 -3.820040
-4.167320 -5.789620 -3.559580
-3.559580 -6.826420 -3.906860
-3.559580 -7.034350 -3.038670
-4.080500 -6.250970 -3.162760
-3.839590 -6.685070 -3.038670
-3.733220 -6.825390 -2.778210
-3.646400 -6.859620 -3.472760
-3.906860 -6.524260 -3.299120
-4.031020 -6.424610 -2.951850
-3.733220 -6.807120 -3.212310
-2.166280 -7.987350 -4.080500
-2.083660 -7.827710 -5.122320
-2.257300 -8.022320 -2.778210
-1.215470 -8.243979 -4.167320
-2.517750 -7.687240 -4.514590
-1.910020 -8.155910 -3.299120
-1.736380 -8.077060 -4.601410
-2.604570 -7.360930 -5.382780
-2.257300 -7.998970 -3.646400
-1.761010 -8.160990 -3.733220
-2.614090 -7.813720 -3.559580
-2.430930 -7.951050 -3.125490
-2.691390 -7.395720 -5.035510
-1.600470 -8.160990 -4.167320
-2.430930 -7.620150 -5.035510
-2.691390 -7.663050 -4.080500
-1.910020 -8.092520 -4.080500
-1.996840 -8.132640 -3.125490
-2.170480 -7.912840 -4.514590
-2.257300 -8.029591 -3.299120
-2.204770 -7.726900 -5.209140
-1.649560 -8.220409 -2.778210
-1.649560 -8.185480 -3.733220
-2.517750 -7.904730 -2.865030
-2.430930 -7.695640 -4.775050
-1.910020 -8.046560 -4.427770
-1.389110 -8.074170 -5.039080
-1.389110 -8.006290 -5.382780
-2.517750 -7.765180 -4.167320
-1.823200 -7.872460 -5.469600
-1.649560 -8.029750 -5.035510
-1.389110 -8.175050 -4.514590
-2.083660 -7.900530 -4.780180
-1.649560 -7.999600 -5.209140
-1.562740 -7.987350 -5.374780
-1.910020 -7.875680 -5.295959
-1.562740 -8.093210 -4.775050
-2.336050 -7.553260 -5.469600
-1.389110 -8.034550 -5.209140
-1.822840 -7.987350 -4.948690
-1.649560 -7.947240 -5.469600
-1.475920 -7.987350 -5.479730
-1.215470 -8.176230 -4.775050
-1.128650 -8.160990 -4.907350
-0.868190 -8.102759 -5.122320
-0.955010 -8.074170 -5.332710
-1.215470 -7.965910 -5.382780
-1.041830 -7.996020 -5.382780
-0.955010 -8.089849 -5.035510
-1.128650 -7.975920 -5.209140
-0.868190 -8.159070 -5.295959
-1.041830 -7.987350 -5.160710
-0.955010 -8.175740 -4.948690
-0.935670 -8.160990 -5.382780
-0.955010 -8.237659 -5.469600
-1.041830 -8.074170 -5.448150
-1.128650 -7.962430 -5.382780
-0.842420 -8.160990 -5.035510
-1.041830 -8.070220 -5.035510
-1.002530 -7.987350 -5.209140
-1.215470 -7.986090 -5.295959
-1.097790 -7.987350 -5.469600
-0.822610 -8.160990 -5.209140
-1.215470 -8.065681 -5.035510
-1.215470 -8.006781 -5.209140
-0.955010 -8.024230 -5.209140
-1.302290 -7.972110 -5.469600
-1.011030 -7.987350 -5.295959
-0.896190 -8.074170 -5.209140
-1.128650 -8.004640 -5.122320
-0.781370 -8.188070 -5.122320
-1.215470 -7.948060 -5.469600
-0.955010 -8.041890 -5.122320
-2.430930 -7.883630 -3.820040
-0.201680 -9.029180 -1.302290
-0.434100 -9.213420 -2.604570
-0.438380 -8.855540 -1.823200
-0.149430 -9.289640 -1.649560
-0.348140 -9.116000 -2.083660
-1.389110 -8.265201 -2.430930
-0.417860 -8.681910 -1.389110
-0.607730 -8.768730 -2.254190
-0.260460 -9.036280 -1.562740
-0.243120 -8.855540 -1.128650
-0.415780 -9.116000 -2.344110
-0.080180 -9.723741 -2.430930
-0.194060 -9.636920 -2.691390
-0.086820 -9.725870 -2.517750
-0.613100 -8.595090 -1.736380
-0.250470 -9.376460 -2.257300
-0.868190 -8.508270 -2.328140
-0.086820 -9.463280 -1.778410
-0.594080 -8.855540 -2.430930
-1.215470 -8.261250 -2.083660
-0.724830 -8.595090 -2.083660
-0.694550 -8.421451 -1.539330
-0.955010 -8.374721 -1.996840
-1.033130 -8.421451 -2.517750
-0.798560 -8.595090 -2.517750
-0.131420 -9.550100 -2.170480
-0.260460 -9.463280 -2.466570
-0.607730 -8.855540 -2.517590
-0.868190 -8.252450 -1.475920
-0.086900 -9.550100 -1.996840
-1.128650 -8.385530 -2.604570
-0.971850 -8.421451 -2.170480
-0.781370 -8.452230 -1.823200
-0.868190 -8.534471 -2.691390
-0.553420 -8.508270 -1.389110
-1.178850 -8.334630 -2.344110
-2.365210 -8.247810 -0.434100
-1.475920 -8.352420 -0.520910
-1.910020 -8.455900 -0.347280
-2.534080 -8.334630 -0.086820
-2.170480 -8.274890 -0.520910
-2.083660 -8.457920 -0.260460
-1.736380 -8.405400 -0.434100
-1.475920 -8.508270 -0.253470
-1.649560 -8.334630 -0.565170
-2.288300 -8.508270 -0.086820
-2.257300 -8.421451 -0.212910
-1.996840 -8.334630 -0.496390
-1.736380 -8.508270 -0.282090
-2.430930 -8.334630 -0.221640
-1.562740 -8.469931 -0.347280
-2.517750 -8.368210 -0.000000
-1.389110 -8.508270 -0.223580
-2.170480 -8.595090 -0.048430
-2.330990 -8.508270 -0.000000
-2.083660 -8.656580 -0.000000
-2.083660 -8.595090 -0.099670
-1.562740 -8.595090 -0.157080
-1.389110 -8.693240 -0.000000
-1.562740 -8.722640 -0.000000
-1.736380 -8.733180 -0.000000
-1.736380 -8.681910 -0.085720
-1.910020 -8.662020 -0.086820
-1.475920 -8.681910 -0.076900
-1.823200 -8.595090 -0.158410
-1.996840 -8.543210 -0.173640
-1.649560 -8.681910 -0.085360
-1.996840 -8.681910 -0.007420
-1.823200 -8.726620 -0.000000
-0.201720 -8.768730 -0.694550
-0.070450 -9.029180 -0.347280
-0.452470 -8.334630 -0.607730
-0.255490 -8.681910 -0.173640
-0.626350 -8.334630 -1.215470
-0.434100 -8.519910 -1.128650
-0.448230 -8.421451 -0.955010
-0.613260 -8.247810 -0.955010
-1.302290 -8.429680 -0.347280
-0.264430 -8.595090 -0.520910
-0.058480 -9.116000 -0.000000
-0.013480 -9.289640 -0.955010
-0.347280 -8.508270 -0.797430
-0.086820 -9.116000 -0.896980
-0.868190 -8.468160 -0.173640
-0.188880 -8.855540 -0.086820
-0.283130 -8.595090 -0.260460
-0.146590 -8.855540 -0.434100
-0.260460 -8.697310 -0.868190
-0.694550 -8.249081 -1.128650
-1.215470 -8.458080 -0.260460
-0.095000 -9.029180 -0.694550
-0.376630 -8.421451 -0.607730
-0.520910 -8.287109 -0.781370
-1.370720 -8.334630 -0.520910
-1.071310 -8.334630 -0.347280
-0.133360 -8.942360 -0.173640
-0.220090 -8.681910 -0.434100
-0.547430 -8.247810 -0.694550
-1.215470 -8.657950 -0.000000
-1.128650 -8.535490 -0.173640
-0.868190 -8.397390 -0.260460
-0.868190 -8.495831 -0.000000
-1.215470 -8.334630 -0.431060
-1.302290 -8.595090 -0.134980
-1.041830 -8.421451 -0.265100
-0.781370 -8.334630 -0.329620
-0.955010 -8.524199 -0.086820
-1.302290 -8.247810 -0.600740
-0.781370 -8.462730 -0.000000
-1.041830 -8.558500 -0.086820
-0.726080 -8.421451 -0.173640
-0.955010 -8.321830 -0.347280
-0.694550 -8.247810 -0.420400
-1.215470 -8.560190 -0.173640
-1.081180 -8.595090 -0.000000
-1.128650 -8.247810 -0.487490
-1.302290 -8.641860 -0.086820
-0.694550 -8.389710 -0.260460
-0.347280 -8.479950 -0.347280
-0.434100 -8.508270 -0.091860
-0.663630 -8.421451 -0.086820
-0.520910 -8.331540 -0.434100
-0.607730 -8.340400 -0.347280
-0.520910 -8.402310 -0.173640
-0.388190 -8.421451 -0.434100
-0.434100 -8.421451 -0.271250
-0.607730 -8.421451 -0.051660
-0.520910 -8.354460 -0.347280
-0.512000 -8.508270 -0.000000
-0.384910 -8.508270 -0.173640
-0.520910 -8.285210 -0.520910
-0.520910 -8.444611 -0.086820
-4.167560 -6.164150 -0.868190
-4.389360 -5.643240 -2.344110
-3.957000 -6.685070 -1.649560
-4.167320 -6.300480 -2.083660
-3.733220 -6.907620 -1.128650
-4.393790 -5.643240 -1.649560
-4.167320 -6.250970 -2.625800
-3.910030 -6.771890 -1.996840
-4.187010 -6.077330 -0.434100
-4.186070 -6.250970 -1.562740
-3.301640 -7.292800 -0.781370
-4.000370 -6.511430 -1.041830
-4.080500 -6.343440 -0.347280
-4.262720 -5.990520 -1.302290
-3.733220 -6.960020 -1.389110
-3.038670 -7.582820 -2.083660
-3.906860 -6.622380 -0.607730
-4.322350 -5.903700 -2.083660
-4.273330 -5.903700 -0.868190
-3.038670 -7.576170 -2.604570
-4.256550 -6.077330 -2.257300
-4.111020 -6.424610 -1.736380
-4.340950 -5.673990 -0.694550
-3.996910 -6.598250 -2.430930
-3.874000 -6.685070 -0.955010
-3.697330 -7.032340 -1.562740
-4.338150 -5.730060 -2.604570
-4.033310 -6.511430 -1.302290
-4.293330 -5.990520 -1.736380
-3.559580 -7.195490 -1.736380
-3.212310 -7.456970 -2.257300
-3.682240 -7.032340 -2.344110
-2.951850 -7.566110 -1.562740
-2.951850 -7.606560 -1.823200
-3.472760 -7.262230 -2.257300
-3.212310 -7.437580 -1.823200
-3.385940 -7.301270 -2.604570
-2.831570 -7.726900 -2.344110
-3.212310 -7.400420 -1.475920
-3.733220 -7.011400 -1.996840
-3.733220 -6.913060 -2.517750
-2.819300 -7.640080 -1.475920
-3.453010 -7.292800 -1.823200
-3.559580 -7.102330 -2.691390
-3.125490 -7.453940 -1.562740
-3.385940 -7.341880 -2.083660
-2.778210 -7.745200 -2.170480
-3.385940 -7.317640 -1.562740
-3.282130 -7.379620 -2.517750
-3.935690 -6.598250 -2.691390
-4.005340 -6.598250 -2.257300
-3.646400 -6.950640 -0.694550
-3.134310 -7.553260 -0.520910
-3.077670 -7.466440 -1.128650
-2.862970 -7.813720 -0.607730
-3.472760 -7.227380 -0.173640
-2.822000 -8.074170 -0.086820
-3.385940 -7.262070 -1.215470
-3.704200 -7.032340 -0.000000
-3.008250 -7.813720 -0.260460
-3.495510 -7.119160 -0.434100
-2.822040 -7.726900 -0.868190
-3.125490 -7.627150 -0.260460
-2.934990 -7.553260 -1.215470
-3.299120 -7.410560 -0.260460
-3.104400 -7.640080 -0.086820
-3.125490 -7.466440 -0.778900
-3.385940 -7.276410 -1.302290
-2.866020 -7.987350 -0.260460
-3.385940 -7.380320 -0.000000
-2.865030 -7.618070 -1.041830
-3.559580 -7.058370 -0.868190
-3.628360 -7.032340 -0.260460
-2.953370 -7.813720 -0.434100
-3.350120 -7.292800 -0.434100
-3.078410 -7.466440 -1.302290
-2.951850 -7.895360 -0.086820
-2.994290 -7.640080 -0.694550
-2.778210 -8.123220 -0.000000
-2.778210 -8.026630 -0.347280
-3.299120 -7.298850 -0.955010
-3.152900 -7.553260 -0.434100
-2.951850 -7.886510 -0.000000
-4.340950 -5.643240 -0.084600
-4.377060 -5.556420 -0.520910
-4.238620 -5.903700 -0.086820
-4.340950 -5.626070 -0.260460
-4.274090 -5.816880 -0.260460
-4.427770 -5.555110 -0.000000
-3.899760 -6.685070 -0.173640
-3.820040 -6.775660 -0.347280
-1.562740 -8.160990 -2.256900
-2.044400 -7.987350 -2.083660
-1.822480 -8.160990 -2.691390
-2.230570 -7.900530 -1.910020
-1.785610 -8.074170 -2.170480
-2.344110 -7.951430 -2.344110
-1.910020 -7.961370 -1.823200
-2.083660 -8.059300 -2.517750
-2.604570 -7.786430 -1.910020
-2.344110 -7.815320 -1.389110
-1.996840 -7.895340 -1.562740
-1.649560 -8.012190 -1.736380
-2.517750 -7.876530 -2.344110
-2.517750 -7.751400 -1.475920
-2.257300 -7.833890 -1.562740
-2.684070 -7.813720 -2.691390
-1.475920 -7.996620 -1.389110
-1.736380 -7.961890 -1.562740
-2.692560 -7.726900 -1.736380
-2.430930 -7.814240 -1.736380
-1.041830 -8.240069 -1.736380
-0.955010 -8.177180 -1.389110
-1.215470 -8.082510 -1.475920
-1.302290 -8.120060 -1.736380
-1.365930 -8.074170 -1.649560
-2.170480 -8.021660 -0.955010
-1.736380 -8.168280 -0.781370
-2.691390 -7.680390 -1.302290
-2.604570 -7.894340 -0.868190
-1.649560 -7.965860 -1.302290
-1.389110 -8.074170 -1.054960
-2.604570 -8.192970 -0.260460
-1.823200 -8.074820 -0.955010
-2.691390 -7.986860 -0.520910
-1.910020 -8.160990 -0.771240
-1.957580 -7.900530 -1.302290
-2.367450 -7.813720 -1.215470
-2.691390 -8.217890 -0.000000
-2.517750 -7.987350 -0.769200
-1.832370 -7.987350 -1.128650
-2.083660 -7.934360 -1.128650
-2.170480 -8.104940 -0.781370
-2.604570 -7.798170 -1.041830
-1.518440 -8.160990 -0.781370
-1.649560 -8.056770 -1.041830
-2.517750 -8.113110 -0.520910
-1.562740 -8.024050 -1.128650
-2.344110 -7.964640 -0.955010
-2.691390 -8.160990 -0.206560
-2.604570 -7.726900 -1.211620
-2.170480 -7.857860 -1.302290
-1.996840 -8.002730 -1.041830
-1.823200 -7.931350 -1.302290
-2.257300 -7.895280 -1.128650
-2.430930 -7.836380 -1.128650
-1.475920 -8.220500 -0.694550
-1.475920 -8.109840 -0.955010
-1.215470 -8.140970 -0.781370
-1.302290 -8.039450 -1.215470
-0.868190 -8.131590 -1.041830
-1.128650 -8.095200 -1.041830
-0.781370 -8.151210 -0.868190
-1.128650 -8.160990 -0.667750
-0.868190 -8.160990 -1.180630
-1.153790 -8.074170 -1.302290
-0.694550 -8.168420 -0.781370
-1.128650 -8.118560 -0.955010
-1.128650 -8.185320 -0.607730
-0.955010 -8.147600 -0.694550
-0.868190 -8.147600 -0.781370
-0.955010 -8.126289 -0.955010
-1.302290 -8.130770 -0.868190
-1.041830 -8.106211 -1.215470
-0.694550 -8.160990 -0.645860
-0.781370 -8.160990 -0.487420
-0.955010 -8.160990 -0.539610
-1.041830 -8.246430 -0.434100
-0.781370 -8.146800 -0.520910
-0.868190 -8.200110 -0.434100
-0.868190 -8.146190 -0.607730
-0.607730 -8.225760 -0.520910
-6.077330 -3.088480 -1.562740
-6.424610 -2.847210 -1.475920
-5.643240 -3.646400 -1.522940
-5.990520 -2.778210 -1.811410
-5.643240 -3.425990 -1.736380
-5.816880 -3.038670 -1.843480
-6.168500 -2.865030 -1.649560
-6.077330 -3.199130 -1.475920
-6.424610 -2.991590 -1.389110
-5.816880 -2.850400 -1.910020
-6.020260 -3.299120 -1.475920
-5.643240 -3.212310 -1.878200
-5.643240 -2.778210 -2.188540
-5.912910 -3.212310 -1.649560
-5.643240 -3.095830 -1.996840
-6.000580 -2.951850 -1.736380
-6.250970 -3.038670 -1.466280
-5.556420 -2.976440 -2.170480
-5.556420 -3.367620 -1.823200
-5.816880 -3.125490 -1.799180
-5.690320 -2.865030 -2.083660
-5.507020 -2.865030 -2.257300
-5.903700 -3.483620 -1.475920
-5.816880 -3.508270 -1.562740
-5.556420 -3.559580 -1.675170
-5.730060 -3.489630 -1.649560
-5.730060 -3.646400 -1.414740
-5.903700 -3.520480 -1.389110
-5.556420 -3.758150 -1.389110
-5.816880 -3.299120 -1.694820
-5.916500 -3.385940 -1.562740
-5.806670 -4.167320 -0.694550
-5.643240 -4.427770 -0.486950
-5.730060 -4.307840 -0.520910
-5.643240 -4.514590 -0.357650
-5.515450 -4.427770 -0.607730
-5.902050 -4.167320 -0.434100
-5.643240 -4.254130 -0.737120
-5.556420 -4.777720 -0.173640
-5.903700 -4.211990 -0.173640
-5.816880 -4.382090 -0.086820
-5.533700 -4.514590 -0.520910
-5.903700 -4.144160 -0.520910
-5.717320 -4.601410 -0.000000
-5.782660 -4.340950 -0.347280
-5.738990 -4.167320 -0.781370
-5.534890 -4.861870 -0.000000
-5.807040 -4.340950 -0.173640
-5.610850 -4.688230 -0.173640
-5.730060 -4.427770 -0.260120
-5.853340 -4.254130 -0.347280
-5.643240 -4.697520 -0.000000
-5.780380 -4.514590 -0.000000
-5.643240 -4.663420 -0.086820
-5.719280 -4.514590 -0.086820
-5.556420 -4.639070 -0.347280
-5.954970 -4.340950 -0.000000
-5.643240 -4.601410 -0.242140
-6.938460 -2.778210 -0.173640
-6.887130 -2.951850 -0.434100
-6.915470 -2.865030 -0.086820
-6.933310 -2.778210 -0.347280
-6.353870 -3.559580 -1.128650
-6.424610 -3.820040 -0.538850
-6.499620 -3.646400 -0.086820
-6.858710 -3.069950 -0.086820
-5.556420 -3.859630 -1.215470
-6.027660 -4.080500 -0.347280
-6.771890 -3.400190 -0.434100
-6.320910 -3.212310 -1.302290
-5.556420 -4.080500 -0.987550
-5.903700 -3.646400 -1.240620
-6.177560 -3.820040 -1.041830
-6.264370 -3.906860 -0.434100
-6.865310 -2.865030 -0.607730
-5.759900 -3.906860 -1.128650
-6.460210 -3.733220 -0.955010
-6.598250 -3.472760 -1.032560
-6.077330 -3.993680 -0.769660
-6.077330 -3.434930 -1.302290
-6.671950 -3.472760 -0.260460
-6.848580 -3.125490 -0.694550
-6.049470 -4.080500 -0.086820
-5.990520 -3.820040 -1.116770
-6.694620 -3.559580 -0.607730
-6.680650 -2.951850 -1.215470
-6.771890 -3.268820 -0.086820
-6.164150 -3.646400 -1.158590
-5.643240 -4.097080 -0.955010
-5.730060 -3.703960 -1.302290
-6.164150 -3.974860 -0.520910
-5.835520 -4.080500 -0.868190
-6.424610 -3.299120 -1.219350
-6.439250 -3.733220 -0.173640
-6.860620 -3.125490 -0.347280
-6.685070 -3.212310 -1.095370
-5.990520 -4.054480 -0.694550
-6.598250 -3.646780 -0.520910
-6.511430 -3.680860 -0.347280
-6.245370 -3.906860 -0.260460
-6.511430 -3.385940 -1.135660
-6.669910 -3.385940 -0.000000
-5.990520 -3.906860 -1.051760
-6.808410 -3.299120 -0.347280
-6.164150 -3.385940 -1.285320
-6.598250 -2.909660 -1.302290
-6.849420 -3.038670 -0.694550
-6.630970 -3.472760 -0.086820
-6.151220 -3.993680 -0.000000
-6.250970 -3.473180 -1.215470
-6.742030 -3.472760 -0.781370
-5.730060 -3.993680 -1.052700
-6.825000 -3.125490 -0.868190
-6.820350 -3.299120 -0.520910
-6.858710 -3.115520 -0.173640
-6.685070 -3.299120 -1.049740
-6.164150 -3.975240 -0.607730
-6.250970 -3.733220 -1.070580
-6.511430 -3.125490 -1.251870
-6.768180 -2.865030 -1.128650
-6.598250 -3.583980 -0.955010
-6.598250 -3.646400 -0.862700
-6.424610 -3.855910 -0.694550
-6.553570 -3.733220 -0.781370
-6.250970 -3.909260 -0.868190
-6.628140 -3.646400 -0.694550
-6.685070 -3.562340 -0.781370
-6.424610 -3.820510 -0.868190
-6.337790 -3.906860 -0.692450
-6.669300 -3.472760 -0.955010
-6.337790 -3.822560 -0.955010
-6.424610 -3.643660 -1.041830
-6.250970 -3.932630 -0.781370
-6.511430 -3.785460 -0.694550
-5.990520 -3.559580 -1.262060
-5.903700 -3.993680 -0.981350
-5.556420 -3.943440 -1.128650
-6.077330 -3.935300 -0.955010
-5.816880 -3.754130 -1.215470
-6.830630 -2.778210 -0.868190
-6.771890 -3.038670 -1.055310
-6.771890 -3.299120 -0.919010
-6.598250 -3.125490 -1.187830
-6.802250 -2.865030 -1.041830
-6.810450 -3.299120 -0.781370
-6.835040 -2.951850 -0.868190
-6.789630 -3.385940 -0.694550
-6.771890 -3.125490 -1.013010
-6.836300 -2.778210 -0.781370
-6.302510 -3.820040 -0.000000
-6.226520 -3.906860 -0.086820
-6.077330 -4.043020 -0.173640
-6.871670 -2.951850 -0.000000
-5.555790 -1.823200 -2.430930
-5.512380 -2.604570 -2.344110
-6.250970 -2.517750 -1.722620
-6.400570 -1.736380 -1.562740
-5.816880 -2.604570 -1.978400
-6.077330 -1.910020 -1.911870
-5.816880 -2.170480 -2.110490
-5.730060 -1.475920 -2.279420
-6.164150 -2.257300 -1.827330
-6.110750 -1.475920 -1.910020
-6.607510 -1.910020 -1.389110
-5.816880 -1.736380 -2.246640
-5.730060 -2.031060 -2.257300
-5.709400 -2.430930 -2.170480
-6.138280 -1.736380 -1.823200
-6.511430 -2.083660 -1.530710
-6.511430 -2.344110 -1.541750
-5.990520 -1.562740 -2.103460
-6.337790 -1.562740 -1.608760
-5.615760 -2.604570 -2.257300
-5.616770 -1.475920 -2.344110
-6.059020 -2.604570 -1.823200
-6.598250 -2.691390 -1.401680
-6.337790 -1.910020 -1.680410
-5.990520 -1.389110 -2.072800
-6.337790 -2.344110 -1.688140
-6.164150 -1.389110 -1.741680
-5.816880 -2.344110 -2.038470
-5.648470 -1.996840 -2.344110
-6.424610 -2.655310 -1.562740
-6.489050 -1.649560 -1.389110
-6.642860 -2.344110 -1.389110
-6.288210 -2.083660 -1.736380
-5.556420 -1.562740 -2.396890
-5.643240 -2.257300 -2.302500
-6.430050 -1.910020 -1.562740
-5.909510 -1.823200 -2.170480
-5.903700 -2.083660 -2.083290
-6.511430 -2.517750 -1.520310
-5.816880 -1.475920 -2.229480
-6.250970 -2.691390 -1.675500
-6.598250 -2.170480 -1.454350
-6.077330 -2.430930 -1.835170
-5.730060 -1.736380 -2.296620
-6.250970 -1.802930 -1.736380
-5.556420 -2.430930 -2.366590
-6.632300 -2.517750 -1.389110
-6.388200 -2.170480 -1.649560
-5.730060 -2.645380 -2.083660
-5.965330 -1.910020 -2.083660
-5.990520 -1.736380 -2.088750
-5.903700 -2.430930 -1.941060
-6.009150 -2.257300 -1.910020
-5.953610 -2.170480 -1.996840
-5.970000 -2.344110 -1.910020
-6.077330 -2.083660 -1.895130
-5.903700 -2.604570 -1.922750
-6.298450 -1.389110 -1.562740
-6.404280 -1.475920 -1.475920
-6.461470 -1.562740 -1.389110
-6.250970 -1.649560 -1.721640
-6.511430 -1.823200 -1.444910
-5.990520 -2.027830 -1.996840
-6.077330 -1.649560 -1.936850
-6.184270 -1.475920 -1.736380
-6.164150 -1.996840 -1.830510
-5.730060 -0.434100 -2.126040
-5.714130 -0.868190 -2.257300
-6.337790 -1.128650 -1.377410
-6.077330 -1.228170 -1.823200
-5.972140 -0.694550 -1.562740
-5.903700 -1.215470 -2.129160
-5.826680 -0.434100 -1.736380
-5.903700 -0.868190 -1.914400
-5.936320 -0.260460 -1.389110
-5.662040 -0.086820 -1.996840
-6.075360 -0.868190 -1.562740
-5.556420 -0.347280 -2.346520
-6.164150 -1.205180 -1.649560
-5.556420 -0.694550 -2.391870
-5.816190 -0.173640 -1.736380
-5.643240 -1.215470 -2.321830
-5.693910 -0.607730 -2.257300
-5.816880 -0.955010 -2.142510
-6.424610 -1.302290 -1.391190
-6.090660 -0.694550 -1.389110
-5.903700 -0.771630 -1.823200
-5.962490 -0.520910 -1.475920
-5.816880 -0.520910 -1.852570
-6.164150 -0.955010 -1.497260
-5.740080 -1.128650 -2.257300
-5.990520 -1.004290 -1.823200
-5.693720 -0.347280 -2.170480
-5.849460 -0.173640 -1.649560
-5.556420 -0.955010 -2.392510
-5.598450 -0.520910 -2.344110
-6.250970 -1.128650 -1.520900
-5.705630 -0.173640 -1.910020
-5.903700 -0.173640 -1.436670
-5.992840 -1.215470 -1.996840
-5.900120 -0.694550 -1.736380
-5.620640 -0.868190 -2.344110
-5.816880 -1.302290 -2.225540
-5.573430 -0.000000 -2.170480
-5.752700 -0.607730 -2.170480
-5.903700 -1.041830 -2.047620
-6.045500 -1.041830 -1.736380
-6.027670 -0.520910 -1.389110
-5.801030 -0.694550 -2.083660
-5.556420 -1.215470 -2.388040
-5.816880 -0.829030 -2.083660
-5.578930 -0.173640 -2.257300
-5.643240 -0.173640 -2.122090
-5.768640 -0.000000 -1.823200
-5.860690 -0.000000 -1.562740
-5.699650 -0.260460 -1.996840
-5.903700 -0.434100 -1.581000
-5.779830 -0.520910 -1.996840
-5.742200 -0.347280 -1.910020
-6.954860 -2.604570 -0.347280
-6.912180 -2.170480 -0.347280
-6.934260 -2.517750 -0.086820
-6.929740 -2.604570 -0.000000
-6.944810 -2.430930 -0.434100
-6.931690 -2.604570 -0.520910
-6.909730 -2.083660 -0.434100
-6.943720 -2.430930 -0.260460
-6.926610 -2.344110 -0.520910
-6.894970 -2.344110 -0.694550
-6.913750 -2.430930 -0.607730
-6.896080 -2.083660 -0.607730
-6.901950 -2.257300 -0.607730
-6.826220 -2.170480 -0.000000
-6.655900 -1.475920 -0.955010
-6.689720 -2.691390 -1.302290
-6.692980 -2.170480 -1.302290
-6.771890 -2.430930 -0.880000
-6.771890 -1.736380 -0.102160
-6.808590 -1.910020 -0.781370
-6.743470 -1.389110 -0.173640
-6.771890 -1.482300 -0.607730
-6.598250 -1.720760 -1.302290
-6.858710 -1.818090 -0.434100
-6.763300 -2.517750 -1.128650
-6.598250 -1.475920 -1.159020
-6.805610 -1.562740 -0.347280
-6.858710 -1.996840 -0.211250
-6.748990 -1.736380 -0.955010
-6.861390 -2.691390 -0.694550
-6.726960 -2.257300 -1.215470
-6.756530 -1.910020 -0.000000
-6.784470 -1.649560 -0.694550
-6.658550 -1.649560 -1.128650
-6.776820 -1.736380 -0.781370
-6.674110 -1.996840 -1.302290
-6.753450 -1.910020 -1.041830
-6.771890 -2.691390 -1.153860
-6.716180 -2.083660 -1.215470
-6.817670 -1.736380 -0.260460
-6.858710 -2.200140 -0.086820
-6.839440 -1.736380 -0.520910
-6.761210 -1.389110 -0.520910
-6.858710 -2.170480 -0.772330
-6.749610 -2.083660 -1.041830
-6.799350 -2.691390 -1.041830
-6.685070 -2.428480 -1.302290
-6.858710 -2.517750 -0.737420
-6.747590 -2.257300 -1.041830
-6.858710 -2.604570 -0.705730
-6.771890 -2.257300 -0.884120
-6.747970 -2.430930 -1.128650
-6.856160 -2.344110 -0.781370
-6.771890 -2.536380 -0.955010
-6.807400 -2.691390 -0.955010
-6.838290 -2.083660 -0.781370
-6.789150 -2.604570 -0.868190
-6.757280 -2.170480 -0.955010
-6.752190 -2.344110 -0.955010
-6.703340 -1.823200 -1.128650
-6.511430 -1.389110 -1.272950
-6.771890 -1.996840 -0.896140
-6.871119 -1.910020 -0.607730
-6.332140 -0.607730 -0.694550
-6.598250 -1.041830 -0.673210
-6.164150 -0.172160 -0.260460
-6.118960 -0.434100 -1.215470
-6.424610 -0.558530 -0.086820
-6.383090 -0.955010 -1.128650
-6.531510 -0.868190 -0.260460
-6.032990 -0.086820 -1.128650
-5.903700 -0.000000 -1.346340
-6.224010 -0.434100 -0.955010
-6.508950 -1.128650 -1.041830
-6.274940 -0.347280 -0.347280
-6.445180 -0.781370 -0.607730
-6.705980 -1.215470 -0.434100
-6.164150 -0.781370 -1.332650
-6.022110 -0.000000 -0.868190
-6.702340 -1.215470 -0.173640
-6.424610 -0.846370 -0.955010
-6.337790 -0.409230 -0.000000
-6.368270 -0.607730 -0.434100
-6.685070 -1.366170 -0.781370
-6.164150 -0.173640 -0.083600
-6.250970 -0.477980 -0.781370
-6.511430 -0.955010 -0.882820
-6.192670 -0.347280 -0.868190
-6.169360 -0.347280 -0.607730
-6.337790 -1.041830 -1.246070
-6.293810 -0.607730 -1.041830
-6.515121 -0.781370 -0.086820
-6.021050 -0.000000 -0.260460
-6.019260 -0.347280 -1.302290
-6.598250 -1.000110 -0.086820
-6.077330 -0.173640 -1.085870
-6.337790 -0.412140 -0.173640
-6.048160 -0.086820 -0.607730
-6.574560 -1.302290 -1.041830
-6.618380 -1.041830 -0.520910
-6.238100 -0.434100 -0.520910
-6.424610 -0.670840 -0.347280
-6.361920 -0.694550 -0.955010
-6.111290 -0.173640 -0.868190
-6.164150 -0.534870 -1.215470
-6.250970 -0.931690 -1.302290
-6.640230 -1.215470 -0.781370
-6.456340 -1.215470 -1.215470
-6.077330 -0.079310 -0.000000
-6.519650 -0.868190 -0.434100
-6.250970 -0.745540 -1.215470
-6.137790 -0.260460 -0.694550
-6.110160 -0.173640 -0.434100
-4.024190 -4.775050 -4.775050
-4.230420 -3.559580 -4.254130
-4.332320 -4.775050 -3.646400
-3.893560 -3.299120 -5.209140
-4.207800 -4.254130 -4.340950
-4.284510 -5.382780 -3.385940
-3.820040 -4.427770 -5.458600
-4.340950 -3.212310 -3.700190
-4.504350 -4.254130 -3.038670
-4.087900 -5.382780 -4.254130
-3.740610 -5.122320 -5.469600
-4.426200 -4.861870 -3.125490
-3.948590 -4.254130 -5.122320
-4.210120 -3.212310 -4.167320
-4.339730 -3.820040 -3.906860
-4.107800 -3.472760 -4.601410
-4.202440 -4.948690 -4.080500
-4.409020 -4.167320 -3.559580
-3.948130 -5.035510 -4.948690
-4.021230 -3.038670 -4.775050
-3.982910 -3.733220 -5.035510
-4.378360 -5.295959 -2.865030
-4.026670 -5.295959 -4.514590
-3.853500 -2.778210 -5.122320
-3.832940 -4.948690 -5.295959
-4.145620 -4.427770 -4.514590
-3.771880 -3.212310 -5.469600
-4.326250 -4.514590 -3.820040
-4.209980 -5.295959 -3.820040
-4.073230 -3.993680 -4.775050
-3.898480 -5.469600 -4.861870
-4.495140 -3.820040 -3.212310
-4.143700 -3.038670 -4.340950
-4.353350 -5.122320 -3.299120
-4.367790 -3.733220 -3.733220
-4.149210 -4.861870 -4.340950
-3.854590 -3.733220 -5.382780
-4.775050 -2.951850 -2.871380
-4.478930 -3.646400 -3.299120
-4.215030 -2.778210 -3.993680
-4.601410 -3.288070 -2.951850
-4.453070 -3.212310 -3.299120
-4.403660 -2.778210 -3.472760
-4.567960 -3.646400 -2.865030
-4.623050 -3.125490 -2.951850
-4.544600 -3.906860 -2.865030
-4.937160 -2.865030 -2.778210
-4.442710 -2.951850 -3.385940
-4.688230 -3.212310 -2.804500
-4.819000 -2.778210 -2.951850
-4.515000 -3.385940 -3.125490
-4.340950 -2.991770 -3.646400
-4.395530 -3.472760 -3.559580
-4.586610 -3.038670 -3.038670
-4.601410 -3.422440 -2.865030
-4.514590 -3.212310 -3.163890
-4.514590 -3.038670 -3.202830
-4.474080 -2.778210 -3.299120
-4.650180 -2.865030 -3.038670
-4.601410 -2.778210 -3.105500
-4.538210 -2.951850 -3.125490
-4.498850 -2.778210 -3.212310
-4.514590 -2.865030 -3.158220
-3.768360 -2.691390 -5.295959
-4.167320 -1.736380 -4.715540
-4.336550 -1.736380 -4.340950
-4.254130 -2.144760 -4.167320
-4.375660 -1.389110 -4.427770
-4.282610 -1.475920 -4.601410
-4.222490 -1.910020 -4.427770
-4.176640 -2.517750 -4.167320
-4.340950 -1.823200 -4.217570
-4.142000 -1.649560 -4.775050
-4.340950 -1.562740 -4.453050
-4.167320 -2.083660 -4.399720
-4.167320 -1.823200 -4.640630
-4.254130 -1.749770 -4.514590
-4.181200 -2.344110 -4.254130
-4.298390 -1.996840 -4.167320
-4.392890 -1.562740 -4.340950
-4.206590 -1.562740 -4.688230
-4.411610 -1.562740 -4.167320
-4.416860 -1.475920 -4.254130
-4.167320 -1.389110 -4.747290
-3.993680 -2.083660 -4.836840
-3.820040 -1.558380 -5.035510
-4.107890 -2.344110 -4.427770
-3.691760 -2.257300 -5.295959
-4.090080 -2.083660 -4.601410
-4.025360 -2.691390 -4.688230
-3.847550 -2.430930 -5.035510
-3.646400 -1.562740 -5.359660
-3.820040 -1.389110 -4.981700
-4.024340 -2.344110 -4.601410
-4.080500 -1.389110 -4.813520
-4.123930 -2.691390 -4.340950
-3.993680 -1.736380 -4.933470
-3.615420 -1.736380 -5.382780
-3.574420 -2.083660 -5.469600
-3.863660 -1.649560 -5.035510
-3.616960 -1.389110 -5.382780
-3.993680 -2.430930 -4.677200
-3.559580 -1.910020 -5.461240
-3.993680 -1.475920 -4.887540
-3.855780 -2.257300 -4.948690
-3.733220 -1.649560 -5.171170
-3.948530 -2.604570 -4.861870
-3.993680 -1.910020 -4.915250
-4.058980 -2.170480 -4.601410
-3.733220 -2.083660 -5.103680
-3.906860 -2.083660 -4.938960
-3.650880 -2.083660 -5.295959
-3.809350 -2.257300 -5.035510
-3.906860 -2.354430 -4.861870
-3.646400 -1.823200 -5.269240
-3.820040 -1.823200 -5.057720
-3.970590 -1.823200 -4.948690
-3.820040 -1.958730 -5.035510
-3.728360 -1.823200 -5.122320
-4.080500 -1.823200 -4.817130
-3.733220 -1.562740 -5.179350
-4.080500 -1.562740 -4.834680
-3.667810 -1.996840 -5.209140
-3.646400 -1.910020 -5.270040
-3.741740 -1.389110 -5.122320
-3.733220 -1.910020 -5.103610
-3.950040 -2.257300 -4.775050
-4.080500 -1.996840 -4.707720
-4.254130 -0.673580 -4.254130
-4.285890 -0.955010 -4.427770
-4.340950 -1.128650 -4.465330
-4.167320 -0.434100 -4.241600
-4.340950 -0.868190 -4.272680
-4.167320 -0.967570 -4.601410
-4.244590 -1.302290 -4.688230
-4.254130 -0.434100 -4.167260
-4.167320 -0.781370 -4.403860
-4.307260 -1.302290 -4.601410
-4.167320 -1.128650 -4.726900
-4.435470 -1.041830 -4.254130
-4.427770 -1.302290 -4.300100
-4.254130 -1.084990 -4.601410
-4.337680 -1.215470 -4.514590
-4.466800 -1.302290 -4.167320
-4.514590 -0.955010 -4.124090
-4.427770 -1.215470 -4.290220
-4.384050 -1.041830 -4.340950
-4.486770 -1.128650 -4.167320
-4.305460 -0.607730 -4.167320
-3.590310 -0.260460 -5.295959
-3.559580 -1.148770 -5.469600
-3.646400 -0.694550 -5.112490
-3.742450 -0.000000 -4.688230
-3.733220 -0.380500 -4.861870
-3.906860 -0.260460 -4.431720
-3.642860 -0.173640 -5.035510
-4.093440 -0.694550 -4.427770
-3.906860 -0.517480 -4.601410
-3.597510 -0.781370 -5.295959
-3.733220 -1.034160 -5.035510
-3.699380 -1.302290 -5.209140
-3.811930 -0.260460 -4.601410
-3.906860 -0.847310 -4.688230
-4.062940 -0.260460 -4.254130
-3.559580 -0.000000 -5.371430
-3.651480 -0.347280 -5.035510
-3.733220 -0.694550 -4.940170
-3.993680 -0.482220 -4.427770
-3.569820 -0.520910 -5.295959
-3.616580 -0.955010 -5.295959
-3.914770 -0.086820 -4.340950
-3.947010 -1.128650 -4.861870
-3.822860 -1.302290 -4.948690
-3.706550 -0.868190 -5.035510
-3.820040 -0.520910 -4.743910
-3.724260 -0.086820 -4.775050
-3.634960 -1.128650 -5.295959
-3.666320 -0.520910 -5.035510
-4.014110 -0.694550 -4.514590
-4.019810 -0.086820 -4.167320
-3.895180 -1.041830 -4.861870
-3.980740 -1.302290 -4.861870
-3.712810 -1.128650 -5.122320
-3.820040 -0.868190 -4.826750
-3.820040 -1.126180 -4.948690
-3.780170 -0.955010 -4.948690
-4.054790 -0.868190 -4.601410
-4.023800 -1.041830 -4.775050
-3.820040 -0.694550 -4.768920
-4.042800 -0.955010 -4.688230
-3.928610 -0.694550 -4.601410
-4.080500 -1.215470 -4.793570
-3.906860 -0.955010 -4.781730
-4.340950 -2.430930 -3.632970
-4.514590 -1.475920 -3.607650
-5.209140 -1.492610 -2.951850
-4.861870 -1.381060 -3.385940
-4.614420 -2.257300 -3.212310
-4.688230 -1.823200 -3.317560
-5.122320 -1.996840 -2.770140
-4.960840 -1.736380 -3.125490
-4.427770 -2.017440 -3.646400
-4.775050 -2.691390 -3.008990
-4.775050 -2.430930 -3.077390
-4.688230 -1.545820 -3.385940
-4.420960 -1.475920 -3.993680
-4.292630 -2.257300 -3.820040
-4.934780 -2.344110 -2.865030
-5.094900 -1.475920 -3.125490
-5.209140 -1.736380 -2.761220
-4.771960 -1.910020 -3.212310
-4.535490 -1.736380 -3.472760
-4.460930 -2.083660 -3.472760
-4.972720 -2.083660 -2.865030
-4.360630 -1.823200 -3.993680
-4.422780 -2.430930 -3.472760
-4.601410 -2.604570 -3.166050
-5.047200 -1.823200 -2.951850
-4.392870 -1.562740 -3.906860
-4.881810 -1.475920 -3.299120
-4.340950 -2.691390 -3.592310
-4.737580 -2.083660 -3.125490
-4.340950 -1.996840 -4.007360
-4.548380 -2.257300 -3.299120
-4.514590 -1.736380 -3.502390
-4.254130 -2.540670 -3.820040
-5.030420 -2.257300 -2.778210
-4.948690 -1.649560 -3.180900
-5.122320 -1.649560 -2.949350
-4.574730 -1.910020 -3.385940
-4.613510 -1.389110 -3.559580
-4.362370 -2.083660 -3.820040
-4.601410 -2.430930 -3.192510
-4.861870 -1.996840 -3.041270
-4.406840 -2.170480 -3.559580
-4.255440 -2.257300 -3.993680
-5.295959 -1.475920 -2.803330
-4.765770 -1.649560 -3.299120
-4.427770 -1.649560 -3.692270
-5.002480 -1.910020 -2.951850
-5.035510 -1.389110 -3.243130
-4.514590 -1.389110 -3.719290
-4.601410 -2.052760 -3.299120
-4.419750 -1.910020 -3.733220
-4.471220 -2.517750 -3.385940
-4.382330 -1.823200 -3.906860
-4.430770 -1.562740 -3.733220
-4.427770 -1.823200 -3.695680
-4.392540 -1.736380 -3.820040
-4.487800 -1.389110 -3.820040
-4.392170 -1.649560 -4.080500
-4.601410 -1.526210 -3.472760
-4.948690 -2.548630 -2.865030
-4.910230 -2.083660 -2.951850
-5.035510 -2.691390 -2.786810
-4.861870 -2.517750 -2.973080
-5.023499 -2.430930 -2.778210
-4.861870 -2.344110 -2.975970
-4.948550 -2.691390 -2.865030
-4.519660 -2.604570 -3.299120
-4.797900 -2.170480 -3.038670
-4.622880 -2.691390 -3.125490
-5.152300 -1.910020 -2.778210
-4.861870 -0.219920 -3.299120
-4.433160 -0.086820 -3.733220
-5.160060 -0.955010 -3.299120
-4.948690 -0.000000 -3.018200
-5.209140 -0.694550 -3.039640
-4.340950 -0.358030 -3.993680
-4.775050 -1.128650 -3.695540
-4.774670 -0.347280 -3.646400
-4.685280 -0.000000 -3.385940
-5.078500 -1.215470 -3.299120
-5.122320 -0.086820 -2.807820
-5.118990 -0.607730 -3.299120
-5.298710 -1.215470 -2.951850
-4.598910 -0.173640 -3.646400
-4.493620 -0.781370 -4.080500
-5.035510 -0.955010 -3.487380
-5.035510 -0.508890 -3.385940
-4.948690 -0.694550 -3.657570
-5.344120 -1.302290 -2.778210
-4.817550 -1.215470 -3.559580
-4.948690 -0.173640 -3.092910
-4.167320 -0.000000 -3.879350
-4.874750 -0.347280 -3.472760
-4.272470 -0.173640 -3.906860
-4.431880 -0.347280 -3.906860
-5.209140 -1.041830 -3.187180
-5.035510 -0.173640 -2.937450
-4.781450 -0.086820 -3.299120
-4.948690 -1.041830 -3.545590
-5.215620 -0.868190 -3.212310
-5.165560 -0.607730 -3.038670
-5.209140 -1.215470 -3.106900
-4.688230 -1.143210 -3.820040
-4.427770 -0.173640 -3.811960
-4.427770 -0.781370 -4.122720
-4.198010 -0.260460 -4.080500
-4.948690 -1.215470 -3.436680
-5.179970 -0.694550 -3.212310
-4.688230 -0.329150 -3.733220
-5.015720 -0.434100 -3.299120
-4.726950 -0.173640 -3.472760
-5.067530 -0.868190 -3.472760
-4.861870 -1.041830 -3.650280
-4.861870 -0.000000 -3.126050
-4.948690 -0.440910 -3.472760
-4.861870 -0.868190 -3.699400
-4.847930 -0.694550 -3.820040
-5.066920 -0.694550 -3.472760
-4.892570 -0.694550 -3.733220
-4.948690 -0.868190 -3.599860
-4.601410 -0.955010 -4.055320
-4.535830 -1.302290 -3.906860
-4.490680 -1.302290 -4.080500
-4.688230 -1.326780 -3.559580
-4.775050 -0.781370 -3.907690
