864
-2.567490 -5.096270 -4.846846
-1.769519 3.515550 4.246656
-1.244031 -4.296412 -2.837045
-2.596736 -5.982511 -4.542069
-2.551477 7.654947 1.984359
-2.140214 -5.181184 -2.938024
-2.508136 -1.957578 -6.463714
0.344582 -8.910141 -4.548267
-0.358193 4.457450 -1.912274
2.471341 -0.870218 -6.572241
1.791352 2.020035 -9.089857
-2.353285 -4.305577 -4.639604
-2.490000 -3.047412 -5.955252
-2.546143 -4.177194 -5.509623
-2.180706 5.267565 -2.898068
-2.279967 3.831302 -4.851348
2.582733 1.164287 -7.623202
2.535111 -2.882659 -7.461914
-2.595392 -4.987327 -5.664651
-2.584440 6.120834 -3.713766
-1.992116 5.381152 -2.041800
2.358353 -4.095542 -7.472091
-2.330454 -0.621690 -8.556639
-2.549086 6.915653 0.187358
-1.591425 9.390509 1.245993
-2.533424 4.816018 -6.392026
-0.368337 3.436021 -3.429619
1.428919 4.966942 -1.710321
-1.708579 -1.850139 5.136283
-1.571249 1.496872 -9.380512
1.594416 -0.249886 -9.478680
-2.191257 -1.426634 -5.864305
-2.243485 0.752840 6.058133
-2.591933 0.685386 7.204656
-0.549901 1.859494 -9.794247
-2.578978 2.258708 -7.406788
0.778481 4.188732 2.614850
2.556439 2.757197 -7.394914
-1.832406 6.285077 -6.812047
0.027700 -3.995960 -2.715990
-1.909858 5.476482 1.418091
0.315703 4.777972 -0.789704
-0.699278 -3.562367 -3.405174
2.404590 2.297899 -6.022005
-0.724034 3.598334 3.356210
-2.356445 5.460399 3.187546
0.270336 2.876992 -3.896667
2.440784 3.753109 -7.423989
-2.230918 -2.762827 -8.315589
-2.592022 5.575046 5.153547
-1.336383 -2.985535 -4.260996
-2.597992 4.818772 5.620242
-0.607269 -2.029686 -4.465386
-1.415691 -0.889531 -9.568052
0.112209 -1.185492 -4.687924
-0.555992 -4.075972 -9.097564
2.596413 -2.203650 -7.001198
-2.104554 3.064029 -5.047654
-2.470543 0.030699 -8.234427
-2.495148 8.015333 -1.450500
-2.536221 6.877184 -4.063300
-0.979903 3.733245 9.083621
-2.585618 7.641360 0.697278
-2.427393 -4.114324 -7.274020
-1.134693 -1.698055 -9.619425
-2.586429 1.500636 -7.026354
-2.528371 6.735392 -1.096170
-1.327967 4.518116 2.541363
-2.595830 4.710880 -5.603360
-2.194021 5.374050 -6.992259
-2.597087 7.463724 -0.633587
-2.596836 -6.871550 -2.607758
-2.519309 7.165466 3.672246
-2.522289 6.154252 -2.894864
-2.487118 6.745837 4.604192
-2.586856 -2.717783 -6.657113
-2.535129 -3.328551 -7.273847
-2.528965 3.816743 -5.667479
1.081109 2.370016 4.462055
0.719758 5.272430 -8.408055
-1.365082 7.759880 -5.712638
1.326102 7.988296 -5.430170
-0.602437 4.773239 1.068715
-2.575916 -4.394186 -6.406892
2.592651 -1.101032 -7.517691
-2.597439 -3.669697 -6.398398
-1.465716 -5.016122 -1.657177
-0.319121 3.974020 -2.774699
0.117632 2.963734 3.800892
-1.290591 -6.093913 -7.528035
0.616121 1.734910 -9.801645
0.964644 0.422626 -9.833773
-1.135222 3.103812 4.019352
2.140758 8.876989 0.513678
-2.525084 -1.109845 -6.728814
1.490752 -1.679772 -9.410031
-0.639294 -3.091330 3.802336
-1.448142 8.228800 -4.908555
-1.628992 -3.409693 -8.818777
-1.608882 2.893402 9.000994
1.855757 -2.420139 -8.927071
0.324826 7.695371 -6.391446
-0.934206 1.566145 4.738343
-2.212411 -2.321247 -5.607697
-2.465354 -5.653131 -3.424759
2.404648 -5.741491 -6.150588
-1.246026 2.241624 -9.447274
0.101296 7.008781 -7.164533
-2.267107 3.970385 4.691989
-2.215356 1.922585 5.744338
-2.591568 -4.026732 6.010797
-2.438960 5.110639 4.050163
-1.252038 -0.043443 -9.707016
-1.927831 5.676769 0.138840
-2.572003 6.592727 2.500287
-2.060228 4.504780 3.705764
-2.562325 5.649596 -5.458220
-0.616299 -4.247536 -2.453501
-2.589691 -0.756733 -7.601187
-1.998783 2.838758 5.006325
0.716342 9.563970 -2.632764
-2.595587 5.923004 4.273594
-2.106323 8.409567 3.029706
-2.491119 -1.322838 -8.060770
-0.620243 7.745408 -6.243688
-2.590588 7.043012 -2.908150
-2.373720 8.101897 -2.499452
-0.783203 3.012762 -9.437433
-2.049916 1.244565 -5.699527
1.154073 -2.579223 -4.403589
-2.580970 3.304255 -6.983715
-2.378636 7.718254 -3.485028
0.076301 9.839414 1.871165
-1.160944 9.576071 -1.811747
1.933798 -5.941412 -6.978987
-2.439814 3.129692 -7.710934
-1.063942 5.801561 -7.895460
-2.384164 0.877495 -8.416960
-2.151979 6.724357 -5.802151
-2.482189 2.656151 6.093922
-0.850320 7.103440 -6.868901
-2.452169 1.936830 -8.058599
2.014418 -5.018607 -7.556859
-2.503547 -5.373387 -4.061192
-2.469505 -4.613173 4.737057
-2.033120 -1.192371 -8.969498
-2.314773 -2.003706 -8.374340
-0.423925 -0.032263 -9.993834
2.598018 -4.470926 -5.935956
-1.098538 9.344493 -2.875798
2.491340 6.312696 -2.203223
1.418107 -3.676632 -8.876660
-2.507169 7.591952 2.819954
1.527555 -1.938810 -4.964455
-1.003341 4.652398 -8.653608
-0.061017 4.449443 1.853788
-1.849701 -8.374709 -3.934693
-2.553733 -5.788024 -5.388138
-2.495489 -6.716830 -4.619718
-2.550163 -6.262622 -2.972524
-1.319446 -4.667691 -8.467739
1.859934 1.216561 5.467102
-2.180236 2.915392 -8.347824
0.096671 -4.517353 -1.714927
-1.643079 4.775268 -8.143966
-2.093191 7.975593 4.074141
-1.235554 -9.673534 -0.859562
-1.823252 2.621014 -8.902603
1.884998 -4.392349 -3.541065
-1.286039 8.421380 4.761298
-1.695485 0.699384 5.401267
-2.453398 -5.208805 -6.443229
2.090927 -0.286345 5.866312
-0.519176 4.082797 -9.100657
-0.377831 -4.767021 -8.792240
-2.414271 6.264289 5.559414
-1.728994 1.575726 5.243940
-2.377461 0.963556 8.407421
-2.489748 1.402527 6.523492
0.340284 -0.357909 -10.000000
2.204216 5.586880 2.301386
-2.496491 5.112674 6.326848
-1.648949 9.426680 -0.160499
-2.466980 8.234821 -0.053757
-2.367867 -7.371236 -4.228866
-2.219437 -0.289273 6.057894
-1.822439 8.514958 -3.677502
0.129316 -3.053749 -9.549533
2.260259 -4.450612 4.227663
-2.595339 -0.485157 7.281167
1.025725 2.561854 -9.476503
-2.368394 8.364370 1.436860
-1.935505 8.980269 -1.779536
-2.445538 3.346001 7.586598
-1.861634 -1.888683 -9.048227
1.253978 -6.106092 -7.544635
-2.092013 7.332767 -5.158950
-1.127248 6.428938 -7.353741
-2.598018 7.160513 -1.940810
-1.720329 -4.950508 -2.354275
-0.818254 9.744920 1.657016
1.174040 -3.373922 -3.841641
-2.061774 -4.155549 -7.996475
-2.482211 0.069092 6.647729
1.904379 -7.661845 -5.086656
-2.564064 3.950922 5.773984
1.528609 -4.648694 -2.603898
-1.588682 -3.908246 8.628778
-2.581756 4.008746 6.580207
-2.198946 -3.478195 -8.099440
-1.990971 6.982340 5.812349
-2.596786 3.180084 6.786677
-0.802772 -4.625716 -1.782546
-1.705775 -2.633668 -9.013837
-2.564253 1.428817 7.700874
0.775163 -2.224909 -9.657789
0.019438 -0.004011 4.817198
-2.501537 4.693796 4.800723
-0.500103 -1.029705 -9.927080
0.995261 -0.923292 -9.787263
-1.444089 8.851658 3.656619
-2.550942 0.119278 7.906549
-2.024268 7.552072 4.977654
-2.125938 1.731401 -8.753783
0.246629 0.897760 -9.976382
-2.316346 -5.923735 -6.244059
-1.961127 8.863203 2.159625
-2.002266 -5.599448 -7.155713
-1.536165 2.328181 4.783021
-0.223427 8.819149 4.725321
1.119593 -1.766670 4.754534
-1.726574 -4.359622 3.318618
2.310165 -5.133896 -3.548471
-2.376207 -6.280226 -1.103613
1.083928 3.239425 3.879505
2.166426 2.177967 5.570067
0.852107 9.774603 -1.409472
0.208974 2.142376 4.323488
-0.701804 2.431730 4.269467
2.037451 -3.720152 -8.242419
-1.035473 -2.584306 -9.467473
-2.277610 -4.866278 -7.188461
-0.426423 8.233759 5.638094
-0.768755 -3.343865 -9.331775
-1.031539 -1.840029 4.683721
-2.534348 -1.133067 6.749592
-2.592881 -1.654351 7.396473
0.687077 -4.477031 -8.870816
1.224316 -5.414930 -8.074742
0.340663 -6.697531 -7.433972
-2.366609 4.632097 7.111236
2.469644 -4.783273 -4.581780
-0.931116 9.831228 0.525878
-1.659840 -0.208030 5.412597
1.645720 -6.785585 -6.563471
2.429392 -6.787472 -4.863962
0.195764 -8.537042 -5.245629
-2.030650 3.267602 8.423696
-1.689031 -1.056686 5.338174
1.610173 2.846899 9.014740
-1.824913 -4.829497 -7.924389
-0.298181 -2.317473 -9.740026
-1.316009 7.765115 5.739814
-2.178167 2.100663 8.577333
-2.156880 4.200493 7.804532
0.506166 9.479534 3.076377
0.343309 -5.977529 -8.024235
2.570567 3.611138 6.904115
2.596044 6.852683 3.093493
-2.346782 -6.494477 -5.552600
0.618172 0.768039 4.830747
-1.997770 -5.575945 -1.470307
-1.539954 -5.456613 -7.804942
-0.709958 -0.995083 4.814958
-1.253655 -5.090636 -0.787443
-1.327340 -4.417780 2.719524
2.577854 -7.524471 -1.857721
-2.580092 -5.438597 4.587853
2.588563 2.446717 6.764353
2.574111 1.136215 7.682921
1.381843 0.211458 5.210705
2.370788 0.627530 8.454286
-2.595797 2.193132 6.970392
0.313584 -3.881111 -9.227109
-1.904149 5.478871 7.368949
-2.541437 -7.220247 -3.369689
-2.053694 -2.630610 5.198211
2.024917 -5.246520 -2.474805
-2.561316 -6.988301 -0.178922
2.247807 -2.781065 -8.279219
0.982568 9.600192 2.083708
-1.877660 -5.588626 -0.688752
1.465248 -4.620190 -8.388156
-2.502290 -3.222394 7.448415
-1.512525 4.211158 8.545877
-2.553518 -2.173229 6.588379
2.281654 -6.519405 -5.719239
2.554576 -6.051374 -3.430120
2.499657 -7.116847 -3.944977
2.108479 -7.888381 -4.221234
-2.472552 2.416782 7.848658
2.325200 0.630988 6.224074
-0.524621 4.616173 8.824888
-2.577963 -7.040111 -0.953368
-2.367440 -6.261314 1.082370
-2.596890 -7.146656 -1.719711
0.697699 -4.342735 -2.325804
-2.574836 -5.640974 5.337329
2.010408 -3.657151 4.466837
-0.886939 -0.209954 4.968895
-0.146423 -3.784210 9.267798
-0.797366 -5.349255 -8.334566
0.690219 -0.580435 4.876433
1.220597 -3.550752 3.696621
-0.520674 -5.988361 -7.978758
0.134369 -1.318700 4.637787
-1.406286 -4.042214 -8.724668
-0.798335 0.683343 4.895066
-0.844587 -8.165068 -5.574245
1.019532 -8.236842 -5.344779
-0.529616 -4.781391 -0.993982
2.321641 5.355346 -3.238888
-1.150190 -7.190497 -6.599064
-0.304836 -7.211508 -6.942612
0.159800 9.982650 0.775995
1.919659 -3.069963 -4.779210
1.386822 -4.171427 3.143794
0.308570 -5.247960 -8.524663
0.233218 -2.891956 -3.884985
2.592295 6.455893 -3.302906
2.519638 7.993324 0.975938
0.942800 -6.932119 -6.999431
-2.528944 -7.608559 -2.545216
-2.269129 -1.130265 6.045805
-1.110984 -8.958182 -3.916575
-2.341722 -8.546695 -0.270979
-2.587947 -2.578856 7.196958
1.846441 -2.365991 5.063862
1.344786 -8.842553 -3.867512
-0.386343 -9.047118 -4.254943
-2.453154 -2.279061 7.951422
-0.348770 3.331114 9.417429
-1.795160 -8.957058 2.507517
-1.085518 -9.474598 -2.456197
2.180734 -7.253729 5.039978
1.552386 -0.977865 5.242117
-2.188064 -7.164497 -5.161873
-2.268801 -1.564719 8.539375
-0.214369 2.439697 9.701845
-1.332623 -6.640181 -7.016749
-2.489855 -6.411903 -1.894070
-2.003641 0.514390 9.054230
-2.241425 -5.614424 6.688188
-2.595101 -3.301240 6.504231
-0.150415 -1.201533 9.936801
2.326340 7.892855 3.349307
-2.283554 -7.867232 -3.637756
2.582647 0.155955 7.131189
-2.568824 -7.764747 -0.883160
-0.995942 -7.680328 -6.134252
-1.911219 -6.260020 -6.728465
0.860372 -9.461246 -2.842794
2.041274 -8.321892 -3.519465
-1.186418 2.420939 9.419914
0.926646 -0.267341 -4.996516
2.571091 6.551062 -4.229884
-2.545820 -6.147597 3.141049
-0.559289 -6.658536 -7.417295
-1.697997 -2.915971 4.605983
2.528942 -0.779384 6.775717
-2.458068 -2.780028 5.959237
-2.280303 -3.802697 4.863241
2.382312 -5.938814 -2.363285
-0.874366 -9.347644 -3.181978
-2.518730 -1.032042 7.986087
2.524680 8.027698 -0.305073
-2.290184 -6.193671 -0.261623
2.329955 -6.120802 -1.395489
-0.236525 0.215395 10.000000
0.695706 -2.424179 4.274801
0.629835 -9.212328 -3.756580
0.450549 7.026885 7.078650
-0.662737 -8.626027 -4.941444
2.350924 -3.102086 5.496692
1.310141 0.268258 9.654834
-1.509120 -5.310187 0.072117
-0.619970 -3.802874 3.085418
-2.195533 -8.537919 -2.198446
-0.167239 -7.723503 -6.387383
-2.016054 -5.765038 0.494579
-2.176660 -5.167986 3.053845
-0.444286 -4.263413 2.336641
-0.245816 1.562294 9.878414
-1.884223 1.537329 9.074198
0.968377 -5.019667 8.449857
-2.491894 -7.969946 -1.760771
-1.392767 -1.217767 9.531211
-2.416910 -3.486708 5.443911
1.899030 4.665221 3.175464
1.987140 2.001322 8.865272
-2.262948 -8.683120 0.561959
0.166786 -4.819987 -0.360730
2.583440 -6.774916 -2.294966
-2.503810 -6.715719 0.464052
-1.877485 -1.972484 8.997990
1.700180 -6.182694 7.058330
-1.956853 -0.809067 9.088396
-1.332536 -8.495573 -4.596223
-0.285698 -4.741503 0.979727
-1.883440 -9.067197 -1.651765
2.529833 -7.882788 1.452053
2.342594 -5.887608 6.189503
-0.084518 -8.171595 -5.809474
-2.086815 -5.346982 2.433130
0.619276 -7.509762 -6.532109
-1.984264 -7.826109 -4.655593
-2.284110 -8.152061 -2.939961
2.381063 -8.348075 -1.409075
2.259615 -4.413452 7.497058
2.235318 -3.559849 7.983183
2.575258 -7.125122 -3.103254
2.022763 -0.321420 9.039911
-1.908398 -6.864002 -6.115179
1.207878 -4.845152 -1.678922
-1.225486 1.553353 9.580537
0.248691 -3.027868 3.766210
-2.535083 -5.192972 6.068529
-2.508086 -3.982834 7.047531
-0.088410 -2.525813 9.688755
-0.866385 -0.550517 9.849235
1.970871 6.935938 5.904180
2.128482 -8.637169 -2.216851
-1.550380 -7.956327 -5.216791
-1.849059 -3.623812 4.261144
-1.699271 -7.439345 -5.737778
1.630362 -9.254615 -1.910953
-1.019020 -2.608262 4.298352
2.488976 -5.663857 3.534567
-0.920550 -4.697377 1.693424
1.578090 -9.025932 -2.936645
-0.162889 -9.376513 -3.535837
0.149506 -4.522022 1.694123
-2.145315 -2.739129 8.448791
0.489837 -0.413422 9.958106
-1.119157 -5.007579 0.852369
1.693742 -5.415395 7.668766
1.962652 -5.505307 1.556387
-0.643562 -4.908477 0.010709
-1.326256 -2.364335 9.355906
-1.525689 0.071718 9.517705
0.864744 -6.399885 7.512034
2.498482 -7.065967 4.028351
-1.740700 -8.988657 -2.596836
0.349503 -4.826554 0.480050
1.582883 5.205203 1.271917
-2.571541 -7.794410 -0.140616
-1.848699 -9.212569 -0.849378
-0.517385 -9.944583 -0.740395
0.957790 -9.801940 0.863327
-2.319265 -8.523695 -1.122771
1.439012 -2.938826 4.356248
2.565725 -6.945836 -1.005833
2.434180 -6.516133 -0.143964
1.807645 -9.233951 -1.041105
2.563568 -2.868294 7.294675
2.161892 -8.673682 1.830345
2.574901 -7.752825 -0.544085
-1.842013 -9.213762 0.892859
-0.694006 -1.870701 9.741398
2.022310 -4.688807 3.396182
1.151467 -3.708415 9.012506
-0.613080 -8.013116 5.890229
-1.054206 -5.608417 8.027472
0.595205 -4.172438 2.554266
-1.537522 -4.911567 2.065284
2.589100 -3.636938 -6.725719
1.306370 -4.700625 2.167711
-2.179295 -5.773510 1.665558
0.626721 -1.813730 9.770127
-1.298469 -9.675788 -0.034008
-1.600520 -3.165685 8.917726
1.078292 -9.743170 -0.956263
-0.554290 9.190154 3.828396
0.300087 -9.867663 -1.666778
0.257851 -3.651220 3.168941
0.122002 -9.614852 -2.830384
0.926887 -9.652289 -1.984184
1.921952 -1.583451 9.025961
-1.265826 -9.547307 -1.689579
-1.750342 -5.354377 1.273706
0.461791 -4.334634 8.982536
-2.203784 -7.342999 4.843828
-0.146312 4.823646 0.154274
-2.584991 -4.635726 5.455179
2.597601 4.241488 -6.154344
-2.597328 -7.305696 0.929665
-2.553843 -7.886147 0.502353
1.227771 -5.122713 -0.376284
0.971434 -4.821226 1.376039
-2.199703 -3.489283 8.077824
2.282955 -8.654819 -0.440799
-0.258418 -9.736380 -2.334883
-2.318742 -6.140471 6.008580
-2.393734 -8.342030 1.243532
-1.889370 -9.208700 -0.053167
-1.750142 -5.368434 7.640753
-1.329420 -3.646799 3.688790
-0.089300 -8.440356 5.395322
-2.595225 -6.080325 4.040372
-2.561601 -6.789894 1.661214
2.361704 -7.953458 3.013592
-0.158660 -2.133683 4.326410
2.077312 -5.268943 2.568394
-2.002600 -8.922993 1.676706
2.597417 -7.469916 0.407176
2.461865 -6.159410 2.350336
1.824057 -9.275248 0.069020
-0.568193 -9.829090 -1.621315
-1.716597 -8.786917 -3.277398
-2.412538 -5.257746 3.747364
-2.596049 -6.906742 2.429676
-2.227103 -4.996930 7.189962
2.446453 -6.488750 0.894230
-2.446177 -6.114891 2.340295
-1.747980 -4.580694 8.139000
-1.813303 -6.623650 6.499533
-2.166801 -4.461230 3.991622
-1.051787 -6.353302 7.454132
2.373217 -8.462632 0.575227
1.299326 -9.503323 1.808252
-2.230575 -6.777605 5.537375
1.092036 -9.147021 3.461274
-2.523215 -4.608027 6.584798
1.113705 -8.759651 4.324677
1.771596 -8.607580 3.580753
-2.209739 -4.281601 7.669521
0.269184 -9.979849 -0.778779
0.755254 -5.742152 8.069426
-0.173137 -7.150417 7.007412
-1.030661 -4.924087 8.475827
-0.212194 -6.482032 7.625238
-1.759151 -6.033740 7.117071
0.364696 -9.997659 0.054768
-0.744844 -9.821491 1.347045
-2.219550 -7.779081 4.053796
1.179303 -9.740496 0.001468
-2.567599 -7.656305 1.593285
-0.549998 -9.962835 0.184774
1.850923 -9.184486 1.079909
1.301200 -9.309787 2.622242
1.831022 -6.777585 6.313580
2.389832 -6.505635 5.375299
2.177534 -7.878326 4.007047
1.106234 -7.332173 6.457697
1.161765 5.059595 -0.619904
-0.178553 -5.778511 8.173639
-1.070607 -7.015044 6.823929
-1.255466 -9.672168 0.727671
-1.381922 -9.060895 3.240091
-0.971666 0.772496 9.794018
-0.337235 -9.563530 2.919442
-2.585633 -6.909618 3.341783
-2.158550 8.828582 -0.822377
-2.533589 -7.616958 2.439473
1.591874 -7.608750 5.644131
2.465722 5.673668 3.368304
0.678919 -7.974383 5.914169
1.963766 -8.736624 2.630988
0.301455 -9.355622 3.540409
-1.065784 -7.536617 6.247445
-0.564292 -8.734038 4.782088
0.512744 -9.614769 2.638869
1.637998 -8.116394 4.816285
0.431725 -9.836406 1.722442
-1.103482 -9.456777 2.475958
-0.048281 -7.702207 6.405258
-1.706023 -7.784126 5.233999
2.556095 -7.512605 2.404104
1.934647 -5.646764 0.704564
-2.512111 -6.428777 4.899375
-1.106872 -8.220326 5.282609
0.713547 -8.502608 5.108615
-0.416385 -9.773925 2.058455
-0.667553 -9.243266 3.637707
-1.092412 -8.812849 4.238495
0.134255 -9.035943 4.322254
-1.715621 -7.311177 5.862105
-2.155655 -8.347523 3.007825
-2.443655 -7.649756 3.232054
-2.512053 -6.946846 4.134300
0.688764 -7.005108 7.029996
-1.796628 -8.527462 3.708349
-2.318941 -8.316097 2.171480
-1.423678 -9.446508 1.694890
-0.048300 -9.981342 0.906435
-1.661685 -8.252766 4.538954
1.579402 8.669847 3.834986
1.133728 3.336032 -9.179503
1.712359 -7.301815 -5.893835
0.959717 -7.817141 -5.983015
1.293447 -8.497771 -4.640166
2.340709 2.438793 -8.201989
0.752946 2.450406 9.593239
1.062171 1.627933 9.649423
0.685197 9.057950 4.052962
-1.182356 8.816666 -4.132703
2.596068 -1.738972 7.105667
-2.327212 -0.335316 8.563592
2.519014 -3.086344 -6.053875
2.343002 1.360452 -8.443776
1.869959 9.087484 1.572723
0.644451 -4.797661 -1.045842
1.127853 -3.984414 -3.166420
1.126218 1.547695 4.831651
-0.613499 4.773728 -1.094149
-2.130763 8.885410 0.608099
1.937678 2.623373 -5.058115
1.622670 -4.326111 8.397315
2.453537 -4.907534 -6.675193
2.056539 0.616687 -8.996929
-0.823901 5.507995 8.200899
2.185325 -1.577305 5.800467
-0.444865 5.402778 -8.400196
0.943273 4.126095 -8.943692
0.820320 3.534461 -3.481760
-0.122123 -4.977829 8.687582
2.509869 -2.448385 6.285606
1.998434 -5.755972 -0.338203
2.307569 -2.328253 8.289031
2.559267 -5.260915 4.576258
0.475420 0.913292 9.927160
2.381843 -7.986075 -2.808563
-0.774845 -3.127866 9.388847
0.551393 -3.112279 9.456193
2.566693 -6.805042 1.729319
0.540871 4.532041 -1.815728
-0.138932 6.315362 -7.781266
2.499126 -4.133631 5.283591
2.437824 0.936902 -6.464505
1.540417 8.801345 -3.616758
1.979962 5.671939 -0.877272
1.209409 -5.099658 0.513133
1.843958 1.070456 9.182878
1.544219 3.320603 -4.179530
1.518107 9.075793 2.895071
1.658292 9.416592 -0.268624
1.912470 3.510608 8.474832
2.587843 -5.352827 5.463806
-1.588116 4.998859 8.044363
2.397865 -0.138041 -8.429563
2.471647 0.065759 -6.629913
1.828019 0.554867 -5.556651
1.072769 6.742458 -7.102136
0.519018 8.835752 -4.618061
2.576926 4.622480 5.369240
0.710439 5.998866 -7.908782
2.442102 2.099509 8.031315
2.351884 -5.142182 6.795892
1.771989 -5.365539 -1.327868
1.505117 3.866737 3.621827
0.457826 8.278377 -5.578266
-1.672587 6.589199 6.708844
-1.122624 9.724522 -0.876223
1.508342 4.631345 -8.344676
2.597821 -5.953437 -4.498135
-0.184752 9.705281 -2.466088
2.000383 3.861472 -8.225258
2.592607 -3.694761 6.624303
0.701154 3.392515 9.317957
2.207146 4.332311 4.215987
1.871742 5.113207 -7.683853
0.564276 9.261771 -3.661591
2.590543 -6.210094 4.411480
-2.254708 5.866718 6.432587
2.588799 0.142896 -7.647960
1.238787 7.352683 -6.341539
-1.232559 9.352036 2.594703
2.247178 3.643938 4.906086
-0.844129 -4.169883 8.950361
2.597974 -6.719588 3.115433
2.596101 -5.355687 -5.293247
1.830823 -3.066008 8.737443
-1.253011 6.185760 7.460187
1.802677 5.872194 7.193629
2.492589 6.179566 5.311310
-0.456061 6.727662 7.362108
-0.472504 8.350808 -5.464167
1.288099 -2.480458 9.348832
2.495693 5.259165 -4.156996
1.267381 -0.998848 9.631721
2.267645 7.568264 -4.275191
2.541625 1.532511 6.703433
-0.010942 7.733022 6.362320
2.431962 4.394918 -4.806549
2.579760 3.269799 -6.326043
-0.962058 7.300396 6.581402
2.375309 4.673639 -7.076273
2.324725 3.503868 -5.197152
0.696253 4.702750 1.429209
0.382049 4.282054 9.019696
2.492951 -1.333219 8.037224
1.280780 1.612814 -4.911034
2.309289 6.082816 1.338414
1.782237 2.849121 4.733216
-0.393022 9.328500 -3.578530
2.002973 6.187347 -6.647474
1.883294 6.402868 6.613484
1.573183 5.872892 -7.460754
0.692941 8.455774 5.188075
1.617403 9.084769 -2.622335
2.587923 7.503040 -1.495500
1.327965 4.297668 8.637669
0.011696 6.076120 7.958859
2.581651 6.804734 2.118577
2.146898 5.953464 0.203430
1.334828 5.235325 8.099073
2.014418 7.363871 5.272668
2.583679 1.873310 -6.907619
2.425536 3.071260 7.759882
2.020471 7.410097 -5.210136
2.510356 6.225206 -5.174581
0.586359 4.863716 0.491671
2.150873 8.539279 2.419559
2.080420 -0.997711 -8.931504
2.403653 -1.658892 -8.251935
0.959681 7.834606 5.937620
0.275215 5.269970 8.496693
2.552696 6.932798 -0.252272
2.067597 6.769689 -5.929268
1.493279 4.786209 2.255915
0.285883 3.707766 3.101077
2.464519 5.603236 6.038241
-0.072100 9.913177 -1.448387
0.814966 9.883469 -0.277575
1.265153 7.096531 6.590558
1.488061 5.280360 0.321657
0.965172 6.178141 7.642394
2.550551 5.311894 4.437511
2.466065 3.176801 5.782156
-0.285013 9.997659 -0.322179
2.595364 5.247653 -5.419865
2.256162 8.014788 -3.414233
2.519523 -0.421427 8.038052
2.322099 7.427049 4.299694
1.112449 9.719291 0.967259
2.574829 6.477182 4.278633
2.520196 7.806896 1.961627
2.568564 6.985779 0.781176
2.015108 1.523342 -5.585884
2.479344 6.537369 -1.193701
2.278473 8.383462 -2.213021
2.155540 4.321789 7.740328
1.901074 4.208382 -3.777906
1.628816 8.146765 4.770473
2.247558 8.662764 -1.034730
1.552867 4.568707 -2.767997
2.109067 5.485074 -2.190366
2.398960 5.444538 -6.428736
2.570635 7.332277 -2.658280
1.635415 9.317650 -1.516377
2.228053 5.110221 7.104262
2.583770 4.400370 6.302601
-0.671568 -0.625223 0.397609
-0.022051 0.062369 0.997810
-0.954165 -0.009755 0.299121
-0.913273 0.197568 -0.356230
-0.636864 -0.329398 0.697066
-0.689257 -0.473592 0.548303
-0.797573 0.067206 0.599467
0.419788 -0.129769 0.898297
0.261086 -0.799726 0.540622
-0.904685 -0.399254 -0.148802
-0.553869 0.359177 0.751147
-0.142455 0.945720 0.292097
-0.991214 -0.130677 -0.020473
-0.998440 -0.049170 0.026463
0.720620 0.164768 0.673467
-0.572248 -0.632364 -0.522157
-0.580542 -0.436746 0.687186
-0.162256 0.871985 -0.461861
-0.223811 0.097128 -0.969781
-0.338468 -0.548993 0.764229
-0.873905 0.158695 -0.459462
-0.830721 -0.544833 0.114278
0.400343 0.211290 0.891674
-0.952956 -0.149722 0.263551
-0.939570 -0.071540 0.334798
-0.558073 0.090844 0.824804
-0.942179 -0.256500 0.215652
0.052849 0.475597 -0.878074
-0.997638 -0.016367 -0.066716
-0.217687 -0.206944 0.953827
0.708422 0.242291 -0.662897
-0.510299 -0.652575 0.560125
-0.857875 0.396387 0.326997
-0.829826 0.011034 0.557913
0.078626 -0.153381 -0.985034
-0.999949 -0.010120 0.000744
-0.838953 0.275151 -0.469521
-0.328151 -0.014313 0.944517
-0.566419 -0.193093 0.801177
-0.072391 -0.492355 0.867379
0.121845 0.719209 0.684026
-0.535992 -0.803261 0.259777
-0.193777 -0.833561 -0.517326
-0.763169 0.344336 0.546814
-0.225682 0.569963 0.790070
-0.904008 -0.423216 -0.060473
-0.996073 -0.080878 -0.036011
-0.590895 0.573845 0.567049
0.837502 0.222040 0.499288
-0.703788 0.584767 0.403399
-0.775764 0.036265 -0.629980
-0.989644 0.031955 -0.139942
-0.442353 -0.783090 0.437143
0.527506 0.100581 -0.843576
-0.332134 -0.385257 0.860967
-0.683009 0.413217 -0.602287
0.769252 0.425268 0.476863
-0.708823 0.671774 -0.215150
-0.925030 -0.214337 -0.313653
-0.755021 -0.582014 -0.301998
-0.839915 -0.202648 0.503465
0.752223 0.037984 0.657813
-0.309796 0.212123 0.926839
0.026777 0.255546 -0.966426
-0.634138 -0.765779 0.107013
0.066566 0.345130 -0.936191
-0.902049 0.308305 -0.302085
-0.649810 -0.052721 0.758266
0.996817 -0.042256 0.067605
0.922409 0.124971 0.365438
-0.942942 -0.317374 0.100669
-0.641730 0.209369 0.737799
0.939387 0.194877 0.282089
0.146327 0.418868 0.896180
-0.753920 0.416016 0.508464
-0.999305 -0.035278 -0.012026
-0.819315 -0.438506 0.369371
-0.899123 -0.045449 0.435329
0.557527 0.735473 -0.385023
0.059404 -0.155009 0.986125
-0.989220 -0.026846 0.143953
-0.973296 -0.072246 -0.217890
-0.752512 -0.001222 -0.658578
-0.599082 0.596269 -0.534382
-0.986434 0.000082 0.164159
-0.902137 -0.431444 -0.002196
-0.546476 -0.828742 -0.120625
-0.875805 0.444550 0.187991
0.110236 -0.315416 0.942529
-0.966012 -0.196571 0.167871
-0.958026 0.231435 -0.169185
-0.504397 0.069561 -0.860665
-0.417173 -0.908458 0.025886
0.001570 -0.264924 -0.964268
-0.998948 0.006397 -0.045411
-0.663151 0.296895 -0.687084
0.373705 -0.431560 0.821036
-0.910415 0.250210 0.329454
-0.816829 0.497819 -0.291491
0.428159 -0.271889 -0.861833
-0.519972 0.289692 -0.803560
-0.485177 -0.825488 -0.288396
-0.987575 0.108691 0.113499
-0.691276 -0.460629 -0.556739
-0.487848 0.725252 0.485813
-0.999173 -0.031125 -0.026163
-0.975663 0.209122 0.065957
-0.831485 0.480889 0.278171
-0.963902 0.064712 0.258272
0.140883 -0.884463 -0.444835
-0.159078 -0.907528 0.388700
0.949154 0.049284 0.310929
0.676522 0.161914 -0.718403
-0.912595 0.267821 0.308938
-0.953752 0.139027 0.266510
-0.982365 0.127394 0.136859
-0.864351 -0.443268 0.237512
-0.897459 -0.281539 0.339562
0.994819 0.021898 -0.099278
0.971777 -0.028308 -0.234195
-0.997344 -0.051313 -0.051684
-0.994404 -0.092381 0.051246
-0.757135 -0.604661 0.247250
0.895891 -0.206998 -0.393104
-0.900313 -0.028438 -0.434313
-0.985760 -0.162730 -0.042384
-0.622599 0.775125 0.107480
-0.970863 0.143719 -0.191757
-0.128512 -0.704628 0.697843
0.554685 -0.791889 0.255416
-0.667156 0.266443 -0.695637
-0.596505 0.145701 -0.789274
0.631760 -0.021488 -0.774866
-0.854221 0.134594 0.502186
-0.871813 -0.066307 -0.485330
-0.998009 0.016863 -0.060771
-0.205617 0.174098 -0.963022
-0.988296 0.025763 -0.150355
0.305852 -0.821974 -0.480431
0.984856 0.041531 -0.168326
-0.691153 0.491356 -0.529978
0.038432 0.837673 0.544818
-0.740821 -0.651267 -0.164425
0.119524 -0.980430 0.156431
-0.259572 0.705984 0.658946
0.940089 -0.119767 0.319201
-0.263544 -0.706280 -0.657049
-0.919927 -0.339551 -0.196058
0.117705 -0.601596 0.790081
0.940157 0.130171 -0.314898
-0.853588 -0.165370 -0.494005
-0.998288 0.046433 0.035559
-0.523848 0.494546 0.693547
-0.999966 0.008093 -0.001500
-0.223549 0.395070 0.891036
-0.538257 -0.076075 -0.839341
0.042221 0.248345 0.967751
-0.211217 -0.392899 -0.894996
0.999987 -0.005082 0.000754
-0.821318 -0.296536 0.487343
-0.945780 -0.003806 -0.324785
-0.960080 0.273803 -0.057257
-0.972031 0.194248 -0.131997
-0.401726 0.348939 0.846675
-0.991237 0.130308 -0.021634
-0.938731 -0.171242 -0.299100
-0.435509 -0.161983 -0.885490
-0.997127 -0.023627 0.071971
-0.979529 -0.194923 0.050283
-0.503844 -0.756152 -0.417582
-0.997608 -0.027548 0.063404
-0.845625 0.315286 -0.430712
-0.999956 0.009251 -0.001241
-0.999763 0.020734 -0.006586
-0.968628 0.221284 0.113102
-0.971329 -0.216586 0.098037
-0.952918 0.253869 0.165827
-0.994934 0.039988 0.092234
-0.974320 -0.091451 -0.205759
-0.969234 -0.130793 0.208517
0.401520 -0.425536 -0.810988
0.287614 0.530114 -0.797657
-0.521019 0.688332 -0.504717
0.504720 0.714749 -0.484140
-0.202768 -0.962213 -0.181745
-0.989692 -0.074856 -0.122092
0.997746 -0.010098 -0.066338
-0.999837 0.004325 0.017551
-0.542390 0.799748 0.257326
-0.121866 -0.823523 0.554038
0.031194 -0.615731 -0.787339
-0.491302 -0.537814 -0.685112
0.247179 0.162715 -0.955210
0.392827 0.060309 -0.917633
-0.403376 -0.560191 -0.723515
0.814901 0.577308 0.051498
-0.969793 0.050439 0.238658
0.572923 -0.138308 -0.807855
-0.224765 0.604886 -0.763933
-0.546273 0.717678 -0.431885
-0.631920 -0.288245 -0.719439
-0.625539 0.236408 0.743513
0.703154 -0.190240 -0.685115
0.114603 0.764273 -0.634629
-0.373291 -0.300247 -0.877785
-0.854379 0.184459 0.485811
-0.952871 0.267016 0.144014
0.921583 -0.273468 -0.275499
-0.494602 0.201699 -0.845391
0.024515 0.703442 -0.710329
-0.878894 -0.304012 -0.367590
-0.866150 -0.150223 -0.476673
-0.998272 0.034497 -0.047580
-0.945856 -0.260634 -0.193457
-0.474097 -0.000093 -0.880473
-0.735576 -0.675858 -0.046302
-0.993107 -0.109880 -0.040805
-0.807221 -0.459405 -0.370597
-0.986434 0.125313 -0.106043
-0.226873 0.842390 0.488782
-0.996986 0.000110 -0.077579
-0.788618 -0.324516 -0.522275
0.286484 0.924563 -0.251217
-0.998926 -0.034794 -0.030604
-0.809654 0.556790 0.185595
-0.952868 -0.052895 -0.298738
-0.226029 0.752351 -0.618771
-0.997009 0.076029 -0.013901
-0.912723 0.391109 -0.118195
-0.304972 0.291005 -0.906812
-0.786903 -0.138027 0.601442
0.433062 0.471107 0.768450
-0.992782 0.065610 -0.100397
-0.910333 0.380265 -0.163376
0.037304 0.983631 0.176293
-0.439513 0.883550 -0.161762
0.753038 -0.431453 -0.496772
-0.938675 0.130002 -0.319357
-0.409570 0.548388 -0.729056
-0.912644 0.034176 -0.407323
-0.835169 0.415942 -0.359840
-0.958247 -0.120121 -0.259488
-0.316251 0.676337 -0.665247
-0.941882 0.101225 -0.320331
0.767331 -0.344621 -0.540776
-0.964468 0.210084 0.160209
-0.950334 0.231151 -0.208411
-0.783947 -0.080345 -0.615606
-0.891321 -0.105781 -0.440859
-0.171947 -0.000757 -0.985106
0.999914 -0.012784 -0.002802
-0.423596 0.866984 -0.262499
0.964618 -0.245411 0.096362
0.543679 -0.317414 -0.776957
-0.962322 0.256689 0.089704
0.571546 0.296986 0.764941
-0.371547 0.438575 -0.818294
-0.042923 -0.917081 -0.396383
-0.705298 -0.643520 -0.297384
-0.981533 -0.141170 -0.129091
-0.961671 -0.222484 -0.160278
-0.985548 0.155535 0.067109
-0.500637 -0.410212 -0.762292
0.719474 -0.147517 -0.678672
-0.835674 0.162145 -0.524746
0.049346 0.924144 0.378844
-0.646475 0.391287 -0.654954
-0.801804 0.531579 0.273007
-0.472336 -0.878189 -0.075387
-0.695139 0.204424 -0.689197
0.739156 0.519759 0.428367
-0.491324 0.758859 0.427474
-0.650012 -0.102108 -0.753033
-0.943321 -0.218498 -0.249808
0.818531 0.063418 -0.570951
-0.199915 0.410362 -0.889740
-0.138498 -0.477397 -0.867704
-0.925627 0.291259 0.241626
-0.667896 -0.201295 -0.716516
-0.920304 0.053022 0.387593
-0.966932 -0.046717 -0.250718
0.125953 -0.037209 -0.991338
0.867926 -0.457842 -0.192573
-0.953016 0.185801 0.239247
-0.633706 0.772864 -0.033136
-0.954205 0.298193 0.023948
-0.916641 -0.346369 -0.199495
-0.849803 0.018885 -0.526763
-0.705112 0.654431 -0.273017
0.056281 -0.310165 -0.949015
0.859338 0.347637 -0.375082
-0.999564 0.002306 -0.029439
0.403768 0.226941 -0.886267
-0.901629 0.425386 0.078179
-0.742671 0.659438 -0.116542
-0.941566 0.124874 0.312826
-0.704707 -0.157564 -0.691781
0.479742 -0.546476 -0.686449
-0.804157 0.490776 -0.335367
-0.427635 0.603186 -0.673272
-0.999907 0.012349 0.005832
-0.659240 0.674691 0.331955
-0.304513 0.940288 0.152089
0.456771 0.588781 0.666857
-0.777468 -0.277925 -0.564182
-0.956244 0.018723 -0.291970
0.727780 -0.562568 -0.392242
-0.985040 -0.109394 -0.133149
0.607175 0.690228 0.393603
-0.607908 -0.319961 0.726687
-0.991637 0.067847 0.109787
-0.839998 -0.209370 -0.500568
-0.754891 0.506589 0.416541
-0.999598 0.002714 0.028228
-0.324854 0.876289 0.355791
-0.657797 -0.202078 -0.725580
-0.986800 0.011839 0.161509
0.305301 -0.221873 -0.926047
-0.027750 -0.002138 -0.999613
-0.965247 -0.168647 -0.199642
-0.201550 -0.096032 -0.974759
0.403952 -0.090657 -0.910277
-0.557305 0.768384 0.314639
-0.981053 0.024813 0.192146
-0.777616 0.525037 0.345903
-0.806784 0.141159 -0.573737
0.106766 0.101948 -0.989044
-0.897229 -0.301451 -0.322656
-0.764957 0.624283 0.158465
-0.767803 -0.399133 -0.501170
-0.590947 -0.371268 -0.716200
-0.086665 0.878469 0.469874
0.425678 0.315184 -0.848208
-0.648052 0.605692 -0.461700
0.895578 0.363182 0.256982
-0.918099 0.391339 0.062835
0.442051 -0.560352 -0.700426
0.839728 -0.210823 -0.500411
0.328637 0.934711 -0.135326
0.103506 -0.441620 -0.891212
-0.262191 -0.452602 -0.852295
0.784207 -0.258546 -0.564069
-0.408929 -0.234262 -0.881985
-0.880201 -0.269459 -0.390689
-0.144423 0.817688 0.557251
-0.288312 -0.329641 -0.899006
-0.378501 0.345840 -0.858564
-0.973839 0.030741 -0.225150
-0.996192 -0.015548 0.085787
0.263378 -0.429974 -0.863571
0.471235 -0.496099 -0.729262
0.127713 -0.657178 -0.742837
-0.897068 0.252089 0.362933
0.949352 0.219036 0.225287
-0.344836 0.937075 0.054585
-0.638778 0.028608 -0.768859
0.641612 -0.554359 -0.530113
0.930126 -0.281641 -0.235679
0.083093 -0.845637 -0.527251
-0.771177 0.233365 0.592306
-0.650422 0.146980 -0.745216
0.628266 0.254824 0.735083
-0.703784 -0.358310 -0.613434
-0.106747 -0.227281 -0.967961
-0.510643 0.687744 0.515995
-0.829606 0.132794 0.542328
-0.813645 0.289016 0.504433
0.197870 0.927820 0.316222
0.138462 -0.593209 -0.793052
0.988304 0.082485 0.128267
0.999588 0.023521 0.016464
-0.907106 -0.319738 -0.273726
0.295259 -0.106807 -0.949429
-0.779026 0.603616 0.169606
-0.569427 -0.480991 -0.666634
-0.289450 0.171588 -0.941688
-0.488247 0.865080 0.115112
-0.525005 0.742382 -0.416219
0.987061 -0.156001 -0.037063
-0.995461 0.062867 -0.071444
0.997299 -0.038420 -0.062594
0.991967 0.022193 0.124538
0.564327 0.004222 -0.825541
0.916979 0.021553 0.398354
-0.998745 -0.019856 -0.045991
0.125669 -0.379600 -0.916576
-0.732540 0.391732 0.556715
-0.979708 -0.178287 -0.091574
-0.811440 0.263423 -0.521703
0.788930 0.562595 0.247137
-0.986943 0.160868 -0.008078
0.872112 -0.163150 -0.461305
0.382539 0.904471 0.188671
-0.727108 0.684006 0.058729
0.584261 -0.391460 -0.710913
-0.960204 -0.115055 0.254502
-0.571951 0.357099 0.738480
-0.982248 0.064266 -0.176233
0.878195 -0.361543 -0.313144
0.983767 0.163440 0.074100
0.962665 -0.245628 -0.113767
0.806703 -0.525451 -0.270427
-0.951239 0.093471 0.293952
0.885510 -0.047806 -0.462155
-0.212397 0.461307 0.861442
-0.990291 0.137765 0.018576
-0.912942 0.402233 -0.068884
-0.999520 0.029265 0.010162
0.283540 0.845625 0.452243
-0.989438 -0.109790 0.094655
0.764085 0.397312 -0.508249
-0.356868 0.038607 -0.933357
-0.057439 -0.382969 0.921974
-0.297426 -0.523179 -0.798638
0.299024 0.104618 -0.948494
0.480019 0.601546 -0.638533
-0.199710 -0.582610 -0.787834
0.034509 0.255066 -0.966308
-0.546818 -0.351163 -0.760049
-0.330468 -0.134337 -0.934208
-0.321455 -0.778493 -0.539088
0.395689 -0.763325 -0.510652
-0.193865 0.963111 0.186638
0.889804 -0.393968 0.230301
-0.436741 -0.665131 -0.605689
-0.115895 -0.722440 -0.681652
0.055847 0.995012 0.082656
0.740395 0.350460 0.573579
0.543072 0.690079 -0.478397
0.112322 -0.522044 -0.845491
0.097001 0.592114 0.799995
0.999826 -0.015282 0.010719
0.964504 0.260275 0.044588
0.381470 -0.659911 -0.647301
-0.970953 -0.228300 -0.071624
-0.871922 0.086999 -0.481853
-0.422020 -0.830262 -0.364095
-0.899372 -0.436830 -0.017620
-0.996244 -0.027588 0.082073
0.745279 0.249385 -0.618358
0.515689 -0.783609 -0.346441
-0.147828 -0.894820 -0.421241
-0.944608 -0.077491 0.318922
-0.118168 0.326165 0.937898
-0.691028 -0.693101 0.205164
-0.427540 -0.873986 -0.230992
0.846037 -0.436402 0.306226
0.605330 0.154105 -0.780914
-0.834145 -0.449366 -0.319799
-0.882335 -0.087688 0.462381
-0.081206 0.239389 0.967522
-0.513166 -0.590335 -0.623029
-0.955793 0.276330 0.100503
-0.750698 0.027062 0.660091
-0.860621 -0.326140 0.391106
-0.999285 0.007822 -0.036981
-0.074239 -0.119204 0.990090
0.886186 0.422999 0.189064
-0.877026 -0.438601 -0.196098
0.995307 -0.019661 -0.094751
-0.987550 -0.156915 -0.011107
-0.369118 -0.723062 -0.583894
-0.728188 -0.466423 -0.502188
0.343623 -0.898640 -0.272709
0.792228 -0.555909 -0.251674
-0.455579 0.213021 0.864332
0.382931 0.045926 0.922635
0.985045 0.151357 -0.082322
-0.975709 0.194111 -0.101552
-0.211413 -0.649390 -0.730477
-0.645683 0.383349 -0.660407
0.976947 0.030017 -0.211360
-0.945689 0.127525 -0.299015
-0.883814 0.288359 -0.368403
0.912658 0.385417 0.136053
-0.338409 -0.890173 -0.305077
-0.967825 -0.053484 0.245873
0.972974 0.230833 -0.006226
-0.893360 0.449043 0.016384
0.896116 0.436254 0.081602
-0.112437 -0.002886 0.993655
0.274623 0.439365 -0.855302
0.249671 -0.892983 -0.374493
0.176735 0.705133 0.686696
-0.242995 -0.849268 -0.468719
0.904848 0.224200 -0.361918
0.501810 0.020364 0.864738
-0.570860 0.820885 0.016319
-0.264528 0.747341 -0.609513
-0.846788 -0.512664 -0.141866
-0.059628 -0.771969 -0.632857
-0.781862 0.622704 -0.030502
-0.834107 0.457386 -0.308323
-0.165428 0.859636 -0.483383
-0.083826 0.167092 0.982371
-0.712953 0.125987 0.689801
0.366739 -0.464882 0.805846
-0.959114 -0.274740 -0.067956
-0.513609 -0.107411 0.851275
-0.940101 0.183679 -0.287179
0.743387 -0.556405 -0.371201
0.765130 0.171127 0.620719
-0.869975 -0.491233 0.042824
0.075941 0.995186 0.061957
0.992970 0.111528 0.039638
-0.957023 0.290007 0.001780
-0.716647 -0.147587 0.681642
0.653992 -0.496015 0.571194
-0.749732 -0.035103 0.660810
-0.507941 -0.761008 -0.403563
-0.089078 0.977799 -0.189669
-0.715270 -0.687522 -0.125313
0.977917 -0.204688 0.042214
0.895696 -0.302234 0.326164
-0.010616 -0.809304 -0.587295
-0.805598 0.545944 -0.230123
0.237689 -0.743258 -0.625357
-0.756757 -0.560553 -0.336303
-0.872741 -0.460855 -0.161045
0.906293 -0.413555 -0.087212
0.876381 -0.242808 0.415934
0.867193 -0.213951 0.449667
0.985794 -0.145690 -0.083571
0.779522 -0.030592 0.625628
-0.728193 -0.508070 -0.460000
0.462747 0.823883 0.327233
-0.467202 0.136887 0.873490
0.126603 0.609731 -0.782432
-0.975682 -0.138489 0.169900
-0.966391 -0.126461 0.223820
-0.054382 -0.253042 0.965926
-0.306584 -0.045311 0.950765
0.755410 0.505506 0.416917
0.825911 -0.551737 -0.116005
-0.597515 -0.669214 -0.441734
-0.707270 0.451872 -0.543673
-0.648622 -0.605029 -0.461768
0.636727 -0.756002 -0.151787
-0.402415 0.482904 -0.777731
0.955503 0.259222 -0.140774
-0.345834 0.879307 -0.327443
0.597565 -0.761999 -0.249549
-0.069550 -0.931599 -0.356772
0.075136 0.923853 -0.375299
-0.822485 -0.185210 0.537788
0.174596 -0.040756 0.983796
-0.453903 0.878684 -0.147944
0.652862 -0.439944 0.616620
0.768111 0.614500 -0.179985
-0.246928 0.969034 -0.000370
-0.484019 -0.215799 0.848031
-0.580311 0.030359 0.813829
0.336720 -0.612707 0.714989
0.958128 -0.243342 0.150912
-0.658051 -0.722650 -0.211531
0.135979 0.986979 -0.085922
0.615952 -0.764812 -0.188853
-0.990875 -0.134785 0.000261
-0.713538 -0.697774 -0.063056
-0.192362 -0.978972 -0.067901
0.377663 -0.922287 0.082208
-0.889603 -0.453787 -0.051803
0.567889 0.445526 -0.692104
0.989494 0.138668 0.040898
0.946257 0.322994 0.016531
0.701170 -0.707711 -0.086637
0.985292 -0.062555 0.159019
0.826991 -0.545376 0.136569
0.992015 -0.126093 0.002508
-0.712561 -0.698236 0.068722
-0.249523 -0.182747 0.950969
0.785849 0.522056 -0.331509
0.443274 -0.356091 0.822622
-0.200931 -0.788791 0.580892
-0.400024 -0.525566 0.750841
0.237041 0.828991 -0.506543
-0.615329 0.724695 -0.310143
0.996517 -0.021674 -0.080523
0.505512 0.774690 -0.379886
-0.841837 0.511307 -0.172845
0.221760 -0.176551 0.958985
-0.495949 -0.868346 -0.003017
-0.607920 -0.274539 0.745025
0.416840 -0.905441 -0.080128
-0.198214 0.903511 0.379974
0.113891 -0.976432 -0.183331
0.124603 0.750930 -0.648520
0.046820 -0.962139 -0.268508
0.349005 -0.916259 -0.196633
0.746691 -0.107281 0.656463
-0.498296 -0.852371 -0.158633
-0.675616 0.713671 -0.184977
0.177354 -0.437284 0.881662
-0.845623 -0.446160 0.293025
-0.052653 -0.998613 0.000397
-0.995297 0.071222 -0.065667
0.999844 0.007537 -0.015945
-0.999874 0.015661 0.002734
-0.982062 -0.187055 0.023754
0.473098 0.879358 0.053923
0.370480 0.898529 -0.235351
-0.840503 -0.210006 0.499453
0.878738 -0.476632 -0.025319
-0.086889 -0.967854 -0.236027
-0.891245 -0.322737 0.318628
-0.921761 -0.384260 0.051967
-0.725860 -0.687824 -0.005039
-0.665582 -0.428446 0.611093
-0.529233 0.571784 -0.626877
-0.034523 -0.829328 0.557695
-0.999259 0.036858 -0.011118
-0.986019 0.160370 -0.045249
0.908636 -0.402165 0.112444
-0.088988 0.457722 -0.884631
0.801118 0.537492 -0.263274
-0.773120 -0.624592 0.110323
0.999858 -0.009346 0.013993
0.939367 0.308998 -0.148696
0.697658 -0.716294 0.014017
-0.211273 -0.965466 -0.152445
-0.654828 -0.710595 -0.257401
-0.939315 0.271856 -0.209241
-0.999761 0.011383 -0.018644
-0.855190 -0.295732 0.425666
0.948394 0.316501 -0.019371
-0.939041 0.323897 -0.115290
-0.666668 -0.368234 0.648042
-0.690194 -0.516993 0.506310
-0.821034 0.429841 -0.375685
-0.399815 -0.594266 0.697850
0.911484 -0.410572 0.025056
0.514588 -0.841199 0.166085
-0.852455 -0.406839 0.328335
0.415461 -0.848209 0.328531
-0.972118 -0.135076 0.191681
0.418619 -0.814216 0.402257
0.684115 -0.673541 0.279872
-0.849090 -0.257254 0.461375
0.105775 -0.991743 -0.072511
0.288714 -0.556520 0.779057
-0.075168 -0.710204 0.699972
-0.391268 -0.465938 0.793606
-0.070789 -0.644523 0.761301
-0.667959 -0.480110 0.568617
0.139885 -0.990167 0.001179
-0.271334 -0.950850 0.149206
-0.847666 -0.466789 0.252132
0.460666 -0.887573 0.000385
-0.988098 -0.151946 0.023971
-0.206773 -0.978329 0.010808
0.702233 -0.707168 0.082354
0.513964 -0.829106 0.220055
0.710296 -0.512426 0.482595
0.919984 -0.310016 0.239831
0.833306 -0.491704 0.252643
0.415747 -0.679434 0.604585
0.465102 -0.879057 0.104592
-0.064010 -0.576283 0.814740
-0.407806 -0.653831 0.637338
-0.483968 -0.872932 0.061351
-0.528394 -0.800780 0.282047
-0.389160 0.047681 0.919936
-0.136717 -0.946437 0.292517
-0.995299 -0.091890 0.030613
-0.812676 0.579020 -0.065521
-0.975967 -0.204251 0.075961
0.601697 -0.646282 0.469340
0.952057 -0.261162 -0.159315
0.253482 -0.773382 0.581058
0.764204 -0.623282 0.165867
0.113213 -0.925998 0.360152
-0.404368 -0.696613 0.592635
-0.211044 -0.867518 0.450414
0.194485 -0.947721 0.252984
0.620600 -0.670618 0.406358
0.155678 -0.973101 0.169818
-0.413951 -0.879636 0.234275
-0.009275 -0.780565 0.625005
-0.657907 -0.623098 0.422973
0.977666 -0.200922 0.061637
0.751589 0.654542 -0.081780
-0.968514 -0.198455 0.150319
-0.415940 -0.764208 0.492930
0.288946 -0.818132 0.497162
-0.152383 -0.970340 0.187667
-0.246369 -0.900897 0.357334
-0.404749 -0.825753 0.392824
0.045698 -0.902757 0.427716
-0.655653 -0.586693 0.475301
-0.824092 -0.534979 0.186195
-0.943525 -0.310231 0.116261
-0.964301 -0.223106 0.142640
0.268289 -0.678214 0.684140
-0.685955 -0.670310 0.283107
-0.890970 -0.437556 0.121312
-0.534631 -0.830813 0.154659
-0.005889 -0.994185 0.107528
-0.644724 -0.669788 0.368395
0.619209 0.717370 0.319311
0.446207 0.309665 -0.839647
0.664456 -0.591113 -0.457256
0.366225 -0.742267 -0.561176
0.504583 -0.761537 -0.406766
0.909093 0.123739 -0.397792
0.278742 0.232590 0.931775
0.404031 0.156726 0.901219
0.257265 0.882263 0.394243
-0.447219 0.810578 -0.378097
0.999477 0.018813 -0.026310
-0.882649 -0.009492 0.469937
0.975741 0.109098 0.189808
0.901909 0.075012 -0.425363
0.728553 0.677029 0.104124
0.257745 0.945665 0.198205
0.425470 0.711812 0.558837
0.451790 -0.311219 -0.836079
-0.269718 -0.941658 0.201328
-0.828463 0.557101 0.057344
0.735594 -0.301990 0.606386
0.618523 -0.361024 0.697919
0.941004 -0.208844 -0.266262
0.768660 0.024161 -0.639201
-0.320598 0.533206 0.782884
0.865553 0.119429 -0.486369
-0.139763 0.533529 -0.834154
0.382562 0.381244 -0.841605
0.325145 -0.695585 0.640658
-0.041185 -0.487700 0.872039
0.964680 0.099301 -0.243993
0.766929 0.639811 0.049622
0.897837 -0.111421 0.425997
0.980528 0.142757 -0.134851
0.186953 0.105710 0.976665
0.920128 -0.360636 -0.152665
-0.283613 -0.287529 0.914817
0.191640 -0.304884 0.932909
0.986254 0.144821 -0.079563
0.226616 -0.910997 0.344572
-0.065521 0.629766 -0.774016
0.964048 0.170563 -0.203765
0.940995 -0.073792 0.330276
0.592437 0.742495 -0.312601
0.769997 -0.631617 0.090362
0.480351 0.872433 -0.090129
0.704190 0.087843 0.704557
0.606191 -0.483246 0.631669
0.584126 0.769578 0.257966
0.633430 0.773650 -0.015251
0.729708 0.231639 0.643327
0.994532 -0.066655 0.080392
-0.603795 0.434585 0.668257
0.913938 -0.006954 -0.405794
0.951669 0.004274 0.307095
0.720144 -0.090003 0.687962
0.418956 0.629278 -0.654588
0.204097 0.868827 -0.451092
0.992864 -0.068010 -0.097959
0.280880 0.564584 -0.776113
0.938945 0.107872 0.326721
0.902309 -0.254711 0.347793
0.677148 0.716548 0.167418
0.577802 -0.610827 -0.541327
0.173689 0.818985 -0.546896
-0.622898 0.555561 0.550772
-0.440359 0.893173 -0.091245
0.564979 0.403495 -0.719715
0.999844 -0.010849 -0.013930
-0.077337 0.967403 -0.241146
0.765680 0.263033 -0.586982
0.996990 -0.038541 0.067276
0.284939 0.328426 0.900526
0.859054 -0.355756 -0.368054
0.704530 0.410188 -0.579123
0.224019 0.904112 -0.363863
0.994877 -0.083540 0.056929
-0.856688 0.334209 0.392925
0.997385 0.008520 -0.071774
0.486995 0.661697 -0.570081
-0.484472 0.840152 0.243784
0.852086 -0.314249 -0.418565
-0.309646 -0.400259 0.862503
0.999880 -0.015130 0.003221
0.997875 -0.052900 -0.038041
0.701524 -0.234939 0.672806
-0.458527 0.567271 0.684074
0.692698 0.458709 0.556557
0.958465 0.222682 0.178205
-0.198326 0.654889 0.729237
-0.180346 0.824338 -0.536602
0.497050 -0.217882 0.839922
0.967613 -0.203203 0.149780
0.495083 -0.085059 0.864672
0.881137 0.414570 -0.227442
0.978917 -0.025317 -0.202683
0.021865 0.780162 0.625195
0.930776 -0.252871 0.264029
0.995569 -0.055044 0.076240
-0.382811 0.678606 0.626857
0.913982 0.229352 -0.334715
0.896439 -0.220727 0.384288
0.260890 -0.914700 -0.308643
0.152170 0.429866 0.889977
0.960604 -0.047245 0.273876
0.501608 -0.258503 0.825570
0.890593 -0.445187 -0.093021
0.705360 -0.328420 -0.628178
-0.138995 0.923461 -0.357632
0.757394 0.427520 -0.493538
0.732688 0.462114 0.499618
0.605798 0.472163 -0.640368
0.257771 0.819090 0.512490
0.621350 0.753475 -0.214940
0.994593 0.101404 -0.022389
0.510094 0.379201 0.772018
-0.010231 0.606727 0.794845
0.990931 -0.132835 -0.020276
0.843299 -0.537349 -0.010158
0.519493 0.455381 0.723018
0.774965 0.510763 0.372224
0.997811 0.010913 0.065223
0.928570 0.117450 0.352084
0.786524 0.506271 -0.353652
0.966524 0.210332 -0.146942
0.228765 -0.971480 -0.062401
0.828298 0.540970 0.145853
0.779866 -0.053050 -0.623694
0.927664 -0.094065 -0.361374
0.365107 0.737411 0.568262
0.116955 0.521999 0.844890
0.985240 -0.170046 0.019644
0.789753 0.466457 -0.398381
0.582565 -0.742545 -0.330523
0.119492 -0.744673 -0.656645
0.945059 0.222767 0.239246
-0.037287 0.989321 -0.140902
0.304949 0.951871 -0.030786
0.476177 0.653291 0.588614
0.570860 -0.820155 -0.038273
0.374585 0.583043 0.720935
0.982325 -0.141438 -0.122609
0.952796 -0.153030 -0.262224
-0.096749 0.994681 -0.035341
0.999372 0.030400 -0.018220
0.871378 0.444119 -0.208465
0.971924 -0.011164 0.235031
0.891818 0.385818 0.236231
0.440089 0.893316 0.091148
0.988931 0.120252 0.086914
0.965171 0.257517 0.046152
0.989987 -0.139265 -0.023042
0.779102 -0.170423 0.603288
0.954984 -0.293565 0.042732
0.874550 0.469890 -0.119855
0.827068 0.287082 0.483262
0.744327 -0.516402 0.423445
0.623209 0.676995 0.391521
0.864206 0.498760 -0.066227
0.607514 -0.680277 0.410062
0.811718 -0.541806 0.218082
0.917268 0.249481 -0.310450
